ncols 100
nrows 38
xllcorner 0
yllcorner 180
cellsize 10.0
5.506825597533913452e+01 5.550123009295060683e+02 5.550216242186577347e+02 5.550298888225253222e+02 5.550577978799865377e+02 5.550824666951817790e+02 5.550902258544299457e+02 5.550830467544466273e+02 5.550447595189542653e+02 5.550376994982574388e+02 5.550514707184936469e+02 5.550352934195301486e+02 5.550688248355199903e+02 5.550409220304120481e+02 5.550829666207788478e+02 5.550490029804276446e+02 5.550495429840004817e+02 5.550880895016562135e+02 5.550918513705641999e+02 5.550400568984666734e+02 5.550221908066860124e+02 5.550058014062436769e+02 5.550392765179491334e+02 5.550417469083213291e+02 5.550219761314452853e+02 5.550709191225707855e+02 5.550039184183577845e+02 5.550586749570911707e+02 5.550565499384010764e+02 5.550539172719237513e+02 5.550050227020984721e+02 5.550655804212738076e+02 5.550153545320089279e+02 5.550744029813760108e+02 5.550230813832026797e+02 5.550765930438144551e+02 5.550015925353097828e+02 5.550544721411249611e+02 5.550144418044031909e+02 5.550556278272800910e+02 5.550299187992823136e+02 5.550640674450162351e+02 5.550169568474781272e+02 5.550776777324173281e+02 5.550846534391481555e+02 5.550246860622730765e+02 5.550891420051968908e+02 5.550032202701669348e+02 5.550431034374219053e+02 5.550309448674188388e+02 5.550398988556515860e+02 5.550881645115860010e+02 5.550179843477408212e+02 5.550692472880568857e+02 5.550604112723182197e+02 5.550724977341387785e+02 5.550450135136688914e+02 5.550705798433999689e+02 5.550419153432520716e+02 5.550315298319964086e+02 5.550556715411040614e+02 5.550291449767632912e+02 5.550632777860242868e+02 5.550721417823970114e+02 5.550164901923662910e+02 5.550910189004974882e+02 5.550997239366137137e+02 5.550742423586202676e+02 5.550644495378063539e+02 5.550958177952568349e+02 5.550116365022304308e+02 5.550253549611530843e+02 5.550396402091349728e+02 5.550304424985018841e+02 5.550296923361919426e+02 5.550315351866441915e+02 5.550690347972625887e+02 5.550146023563250992e+02 5.550146005262497511e+02 5.550785492864844173e+02 5.550945767047129493e+02 5.550970073108611587e+02 5.550167292630382008e+02 5.550628598786735211e+02 5.550671763614473093e+02 5.550521439491350293e+02 5.550346314694195371e+02 5.550414612355665440e+02 5.550345737470798895e+02 5.550836147924500210e+02 5.550960866109946892e+02 5.550164886048488597e+02 5.550051458732996252e+02 5.550715141430947597e+02 5.550102626030827651e+02 5.550531487228414562e+02 5.550638951357657334e+02 5.550097021574989640e+02 5.550323649799144050e+02 5.502495446930934975e+01
5.400768100066335364e+01 5.540748111923747956e+02 5.540062900143548177e+02 5.540754622975181292e+02 5.540541159955834019e+02 5.540687539655343699e+02 5.540337633367646504e+02 5.540092914040818641e+02 5.540888277315915502e+02 5.540894908445935698e+02 5.540411237880898625e+02 5.540222601500211113e+02 5.540303204609807608e+02 5.540702587275022779e+02 5.540599829746302021e+02 5.540757153384279263e+02 5.540755195135774329e+02 5.540152119766917167e+02 5.540385990383183525e+02 5.540767762677442079e+02 5.540001051781370052e+02 5.540110048016865676e+02 5.540711592117271493e+02 5.540082412761362320e+02 5.540629941501940721e+02 5.540537691892203611e+02 5.540660476831627648e+02 5.540102689915764813e+02 5.540890131204480440e+02 5.540435503549706482e+02 5.540085476515818073e+02 5.540685937675442574e+02 5.540078852653964532e+02 5.540110619011278459e+02 5.540081981082432776e+02 5.540614692836951463e+02 5.540075132423088462e+02 5.540400169324802846e+02 5.540033181631711159e+02 5.540215178626991701e+02 5.540352731667726403e+02 5.540097269174664234e+02 5.540370356278784811e+02 5.540698761788559068e+02 5.540185541445283661e+02 5.540931700122725942e+02 5.540989183183173736e+02 5.540705284540875937e+02 5.540208849848913815e+02 5.540983167163079770e+02 5.540648482961267973e+02 5.540673885921991086e+02 5.540850080802728144e+02 5.540980407671853527e+02 5.540046245306352830e+02 5.540005769591959961e+02 5.540189971263815778e+02 5.540056755940477160e+02 5.540511828762848836e+02 5.540625462773904246e+02 5.540837572373802686e+02 5.540229445826281562e+02 5.540324461490820340e+02 5.540391776606517169e+02 5.540242673250035068e+02 5.540444229049459182e+02 5.540647847621239634e+02 5.540712597740183583e+02 5.540688253646000021e+02 5.540197160605786166e+02 5.540385879542146768e+02 5.540777780006465036e+02 5.540374165918642575e+02 5.540063163780383775e+02 5.540106765193419278e+02 5.540064281213354889e+02 5.540734069255767054e+02 5.540267586337703278e+02 5.540359307555743271e+02 5.540720234215895061e+02 5.540989130764204447e+02 5.540829149486639835e+02 5.540464969886512563e+02 5.540817174612401459e+02 5.540694275800781270e+02 5.540946655699692656e+02 5.540734480721856698e+02 5.540855787906028809e+02 5.540683063399345656e+02 5.540413167562184071e+02 5.540578029154584101e+02 5.540903580567029394e+02 5.540588082507947547e+02 5.540804135594545414e+02 5.540346527367154295e+02 5.540307061238429469e+02 5.540388364876723699e+02 5.540780276038170769e+02 5.540769269843492566e+02 5.406258671202607502e+01
5.300496729521024974e+01 5.530060274505682401e+02 5.530264636646155623e+02 5.530960114056496195e+02 5.530173907380004721e+02 5.530037260764823941e+02 5.530586133017324073e+02 5.530483306160127768e+02 5.530304718950271763e+02 5.530643785826131307e+02 5.530211858226213053e+02 5.530022154600410431e+02 5.530115613375706971e+02 5.530454879114729465e+02 5.530925164035795660e+02 5.530337356096445092e+02 5.530348211299450440e+02 5.530915719409862277e+02 5.530698660147443206e+02 5.530245425960034709e+02 5.530706489747012711e+02 5.530450119176077806e+02 5.530308578243848388e+02 5.530198519745079011e+02 5.530722079140167580e+02 5.530705376658630712e+02 5.530373805066980140e+02 5.530550595605787976e+02 5.530009192384159178e+02 5.530692387660484428e+02 5.530063764105200335e+02 5.530083143376183443e+02 5.530339841132972651e+02 5.530328492299523759e+02 5.530229153847545831e+02 5.530583743726581361e+02 5.530565004017952333e+02 5.530117627386371169e+02 5.530985831066184346e+02 5.530067122545374332e+02 5.530658920780575727e+02 5.530070425157288128e+02 5.530487272048331988e+02 5.530320410081289992e+02 5.530338084906708218e+02 5.530339287090340576e+02 5.530640514854808316e+02 5.530565686956762192e+02 5.530216789347474560e+02 5.530595190265720476e+02 5.530889526706259858e+02 5.530389227789817141e+02 5.530848733910761439e+02 5.530049579726946831e+02 5.530092841473619956e+02 5.530429555174046072e+02 5.530932622159787115e+02 5.530898312425423455e+02 5.530103199722748286e+02 5.530114615141703780e+02 5.530569891045405484e+02 5.530298844476496924e+02 5.530097317967685058e+02 5.530982256005298723e+02 5.530356853920553704e+02 5.530710980413604148e+02 5.530528054178496404e+02 5.530117633618878017e+02 5.530417868543130453e+02 5.530062364633182597e+02 5.530580842135240118e+02 5.530590759185762408e+02 5.530640070925772989e+02 5.530469553796950777e+02 5.530527358253228840e+02 5.530531672829160925e+02 5.530092645010823844e+02 5.530606696032996297e+02 5.530574172973657596e+02 5.530931472715017208e+02 5.530434805323189948e+02 5.530414314790427852e+02 5.530315036234173931e+02 5.530629017713505391e+02 5.530563403010553429e+02 5.530540933246760460e+02 5.530393403590468324e+02 5.530307135884036143e+02 5.530429914961824807e+02 5.530751352686602331e+02 5.530890649726111405e+02 5.530280747729502764e+02 5.530252878661895011e+02 5.530104892587197583e+02 5.530289526449137156e+02 5.530413821278120849e+02 5.530739406676278804e+02 5.530898463409204169e+02 5.530681680341408537e+02 5.309347845748883543e+01
5.203376673725333035e+01 5.520604792675757153e+02 5.520523927586178843e+02 5.520281191380586279e+02 5.520951673866520650e+02 5.520331472949814042e+02 5.520516015648363464e+02 5.520921657413560979e+02 5.520768510135527549e+02 5.520130340572189880e+02 5.520488059819886075e+02 5.520125280548805904e+02 5.520455258651567192e+02 5.520261954846417893e+02 5.520413523738083086e+02 5.520707253909941983e+02 5.520224017225569924e+02 5.520279368875987984e+02 5.520421262694237612e+02 5.520367513549666683e+02 5.520804911300676849e+02 5.520595319594788180e+02 5.520233289599636919e+02 5.520482467496426580e+02 5.520180201170043119e+02 5.520395793172145886e+02 5.520046129475207408e+02 5.520560801927179000e+02 5.520635459457197385e+02 5.520029595283250501e+02 5.520185447085701753e+02 5.520502967618994035e+02 5.520474367714731443e+02 5.520824903183589640e+02 5.520436738798216538e+02 5.520631682004554932e+02 5.520302659193361023e+02 5.520820585098311994e+02 5.520654871517689344e+02 5.520890751520098547e+02 5.520135254240450422e+02 5.520974624495756871e+02 5.520860101913785911e+02 5.520410099384765772e+02 5.520237855795097630e+02 5.520494699975465664e+02 5.520683591410538611e+02 5.520908972445746485e+02 5.520323644480718031e+02 5.520477996414499557e+02 5.520123436836737483e+02 5.520223456066096333e+02 5.520400791778802159e+02 5.520754834444067001e+02 5.520110106903750875e+02 5.520780936933260818e+02 5.520789910511288099e+02 5.520694281694529764e+02 5.520014516365417876e+02 5.520210931418097289e+02 5.520528162264764660e+02 5.520926069082269123e+02 5.520805631681505474e+02 5.520848260693842349e+02 5.520203013186994667e+02 5.520527822095059491e+02 5.520544862915471640e+02 5.520402544132841740e+02 5.520104731314964965e+02 5.520672406158473677e+02 5.520037496725407209e+02 5.520550640361797150e+02 5.520959417708224919e+02 5.520998690241057147e+02 5.520566403210382305e+02 5.520517664119022356e+02 5.520349169461460406e+02 5.520847620642907714e+02 5.520404664242158788e+02 5.520281355198321762e+02 5.520315947306215776e+02 5.520549568434823868e+02 5.520020955768519570e+02 5.520972555978880791e+02 5.520082551133458537e+02 5.520133276352313487e+02 5.520701607207656707e+02 5.520504966980809058e+02 5.520540842648338185e+02 5.520027070597644752e+02 5.520755148027290033e+02 5.520180457292271967e+02 5.520764395261967366e+02 5.520219587160088395e+02 5.520767209411267231e+02 5.520377673258258255e+02 5.520929471225575753e+02 5.520851598265099938e+02 5.520758486504096254e+02 5.203950821598525067e+01
5.104287772958674196e+01 5.510769421187018224e+02 5.510657017854882724e+02 5.510746048413958533e+02 5.510096552535920864e+02 5.510270939241941051e+02 5.510999621114659703e+02 5.510081605151042368e+02 5.510376397575537339e+02 5.510019532539400871e+02 5.510339848988554650e+02 5.510128875824161696e+02 5.510378244935976682e+02 5.510737105489206442e+02 5.510057104696785473e+02 5.510722333889411857e+02 5.510937139367903228e+02 5.510014281453009062e+02 5.510691316245382723e+02 5.510222444204052863e+02 5.510818536474596385e+02 5.510032576104312056e+02 5.510616267181475223e+02 5.510017985266372307e+02 5.510544547198425107e+02 5.510068881127716622e+02 5.510190836552684459e+02 5.510830153838880960e+02 5.510820602148438638e+02 5.510741301508543302e+02 5.510726404651969688e+02 5.510969438910822191e+02 5.510781346417313671e+02 5.510532511442193027e+02 5.510240186112630454e+02 5.510088406147986007e+02 5.510219149363300630e+02 5.510439608090299544e+02 5.510867810778105422e+02 5.510985320591803429e+02 5.510681147222443315e+02 5.510900103857046588e+02 5.510171970108300457e+02 5.510849551919708347e+02 5.510175448471059099e+02 5.510863872045021026e+02 5.510257370280839950e+02 5.510500770271034980e+02 5.510064860456324141e+02 5.510263118789055170e+02 5.510738157325218936e+02 5.510076032159566921e+02 5.510117793201479799e+02 5.510130101943948375e+02 5.510082920219125526e+02 5.510233940424307093e+02 5.510393455290791280e+02 5.510393133254344775e+02 5.510688134078891380e+02 5.510702432559093040e+02 5.510336678034797160e+02 5.510985521689058260e+02 5.510240892233431396e+02 5.510888075222079578e+02 5.510391449379249025e+02 5.510862386295067381e+02 5.510164546445197402e+02 5.510094136175622452e+02 5.510028808634936013e+02 5.510462677696433502e+02 5.510341176132077408e+02 5.510138811752972288e+02 5.510183031722332316e+02 5.510989811440032327e+02 5.510886875537423748e+02 5.510873218954192225e+02 5.510732855187362702e+02 5.510955316144375047e+02 5.510389262514654547e+02 5.510471575465433034e+02 5.510279121673008831e+02 5.510126049280511324e+02 5.510675914653902510e+02 5.510568332035905996e+02 5.510928693722669323e+02 5.510534642995540935e+02 5.510979831621592666e+02 5.510187766085023213e+02 5.510716838272981022e+02 5.510493694087127778e+02 5.510395061560224121e+02 5.510865338801340840e+02 5.510359958129326969e+02 5.510168827605307342e+02 5.510489161573148067e+02 5.510019664809665301e+02 5.510529392176742931e+02 5.510112157093384440e+02 5.510897595938777158e+02 5.101828547957255466e+01
5.001289815604239664e+01 5.500918280794898010e+02 5.500615289430228358e+02 5.500516002264859026e+02 5.500282199207821350e+02 5.500776739614652797e+02 5.500931548678437366e+02 5.500764321408104252e+02 5.500902944098672833e+02 5.500330523107152203e+02 5.500439872530751018e+02 5.500985238935195412e+02 5.500746982770175464e+02 5.500073381586080359e+02 5.500639928516121699e+02 5.500729279986741176e+02 5.500924734100718752e+02 5.500737994338685439e+02 5.500107664973280635e+02 5.500125042808464286e+02 5.500030669750971128e+02 5.500174918037624820e+02 5.500480062550418552e+02 5.500009951921653055e+02 5.500712398652816546e+02 5.500903441455939173e+02 5.500863839460455438e+02 5.500902775361671502e+02 5.500345874237816588e+02 5.500779314790778471e+02 5.500669037369308398e+02 5.500033300158063412e+02 5.500502576179611651e+02 5.500918867813435327e+02 5.500014490728863166e+02 5.500576341634360915e+02 5.500289937118606076e+02 5.500749965287727719e+02 5.500076430255867308e+02 5.500380891072273926e+02 5.500833939058976512e+02 5.500817437421858358e+02 5.500880703374969016e+02 5.500921343058337243e+02 5.500180628594046084e+02 5.500957681176420238e+02 5.500687977051511552e+02 5.500561797276676543e+02 5.500174157723459984e+02 5.500106506795183350e+02 5.500364904544683213e+02 5.500758476107979504e+02 5.500987024313822076e+02 5.500576859722875724e+02 5.500128564520216514e+02 5.500197276589392459e+02 5.500205320471015966e+02 5.500915004261206604e+02 5.500856873436113119e+02 5.500524164976602606e+02 5.500884906179525160e+02 5.500976320507861601e+02 5.500029360029120653e+02 5.500942777804982597e+02 5.500182523405017037e+02 5.500938373167278996e+02 5.500671033378081347e+02 5.500572512842919650e+02 5.500971093457628740e+02 5.500810654612707822e+02 5.500796145704387072e+02 5.500140381717669698e+02 5.500066651348288360e+02 5.500415025790508707e+02 5.500522973519094876e+02 5.500127847852928653e+02 5.500706107547847523e+02 5.500846416112938186e+02 5.500735025601879897e+02 5.500856603028458949e+02 5.500173449824088721e+02 5.500247012494806995e+02 5.500848322107708555e+02 5.500129375208582587e+02 5.500968555222627856e+02 5.500810423710454415e+02 5.500171180032127722e+02 5.500040668772847994e+02 5.500033959261453447e+02 5.500584290138525603e+02 5.500409706251831494e+02 5.500357406283877708e+02 5.500952413786401394e+02 5.500394060755231749e+02 5.500629100435564851e+02 5.500141903456933505e+02 5.500944708740356646e+02 5.500383812094040650e+02 5.500960694876009711e+02 5.003093468531329790e+01
4.900654844740517291e+01 5.490369975295799350e+02 5.490777691878645328e+02 5.490972697395571913e+02 5.490899814452166083e+02 5.490150398021088449e+02 5.490518791621445871e+02 5.490042025764047366e+02 5.490655845036601477e+02 5.490127018032421802e+02 5.490519541895241673e+02 5.490254361847321434e+02 5.490533338606453526e+02 5.490436703274289130e+02 5.490991225982559172e+02 5.490495140734930146e+02 5.490991955220220007e+02 5.490887754766793023e+02 5.490619427042255438e+02 5.490313075879079179e+02 5.490507042348599498e+02 5.490929791828855286e+02 5.490478122384838571e+02 5.490916750573895797e+02 5.490430436958916971e+02 5.490420264598126323e+02 5.490077982876307487e+02 5.490634561253436914e+02 5.490927097898835427e+02 5.490002060494621219e+02 5.490621774459855260e+02 5.490883666590741541e+02 5.490742575480416008e+02 5.490418146151957899e+02 5.490719152139046173e+02 5.490719380801457419e+02 5.490811902043800501e+02 5.490826039959307536e+02 5.490238677501564553e+02 5.490865692995529344e+02 5.490194550961850837e+02 5.490750366778390799e+02 5.490718421914829150e+02 5.490421972769282775e+02 5.490519693893334079e+02 5.490497414057780361e+02 5.490602480425825433e+02 5.490728815997501897e+02 5.490841127819321628e+02 5.490320620938649654e+02 5.490097349550457011e+02 5.490294178208044968e+02 5.490356184403508450e+02 5.490469563436665794e+02 5.490377853383770343e+02 5.490256986521851559e+02 5.490695157094794467e+02 5.490441146801865671e+02 5.490827479939656541e+02 5.490282508924364038e+02 5.490237216223835048e+02 5.490184919589155470e+02 5.490502408741892850e+02 5.490966972473084979e+02 5.490731010292730616e+02 5.490012177000317024e+02 5.490886243627948033e+02 5.490225463844960814e+02 5.490811979249018577e+02 5.490633871593978483e+02 5.490661805685261925e+02 5.490694643068928826e+02 5.490932666654144896e+02 5.490128316065789704e+02 5.490885089476880694e+02 5.490526238826544159e+02 5.490501381491171742e+02 5.490880472215374084e+02 5.490312253872674546e+02 5.490595538571453744e+02 5.490973215148504778e+02 5.490793050243129301e+02 5.490899433937992171e+02 5.490097458258376264e+02 5.490510338721395556e+02 5.490892195607010535e+02 5.490045083976619935e+02 5.490405509919656879e+02 5.490951714369728052e+02 5.490101808846786753e+02 5.490645378280321438e+02 5.490499127664537582e+02 5.490670041094570024e+02 5.490019191490033563e+02 5.490455918856297330e+02 5.490536478810422523e+02 5.490286722027634596e+02 5.490005002581273175e+02 5.490634655184753683e+02 4.901833823077453900e+01
4.804790414149675115e+01 5.480590803422152248e+02 5.480377649489109899e+02 5.480197580586908543e+02 5.480105162452081231e+02 5.480895755663967748e+02 5.480108876812570315e+02 5.480647384099376040e+02 5.480806151330360763e+02 5.480388037946402164e+02 5.480457732574095644e+02 5.480439859395430631e+02 5.480733451224324426e+02 5.480328277761821028e+02 5.480627399348871904e+02 5.480399626463851064e+02 5.480937819058424338e+02 5.480905043371044485e+02 5.480441749060910297e+02 5.480917915078612168e+02 5.480335546309795518e+02 5.480109443552287303e+02 5.480721909923959174e+02 5.480561367180409889e+02 5.480234997716944463e+02 5.480045883982717214e+02 5.480085215828498804e+02 5.480452003897038367e+02 5.480051074672556979e+02 5.480627761643432905e+02 5.480733716600396974e+02 5.480512932849792378e+02 5.480628040468596964e+02 5.480908226538375629e+02 5.480689650348118676e+02 5.480770911630228284e+02 5.480906420462572441e+02 5.480523998193715443e+02 5.480928786558512229e+02 5.480466059749393253e+02 5.480834394756017218e+02 5.480910381527570507e+02 5.480921257445589845e+02 5.480710593730738083e+02 5.480042447999275055e+02 5.480576400963650485e+02 5.480504965412591218e+02 5.480082248710803015e+02 5.480272964285364878e+02 5.480527827089159700e+02 5.480526514357578662e+02 5.480563763292359454e+02 5.480361275798152292e+02 5.480488044764239248e+02 5.480610464235463724e+02 5.480556391843082338e+02 5.480866315432508600e+02 5.480139518886398946e+02 5.480162730800907411e+02 5.480567581748269959e+02 5.480203741183248667e+02 5.480370435742780728e+02 5.480330423988375514e+02 5.480064239594862556e+02 5.480669480835360901e+02 5.480006499640107904e+02 5.480893897845332958e+02 5.480090187792289953e+02 5.480573155372803740e+02 5.480915592042878188e+02 5.480270796178532464e+02 5.480775277645952883e+02 5.480965569049333226e+02 5.480643753969656018e+02 5.480822462830003587e+02 5.480064625000462684e+02 5.480269039516341536e+02 5.480390522138105780e+02 5.480149733786619208e+02 5.480499720677677260e+02 5.480611089387380161e+02 5.480238817537727982e+02 5.480031675711322805e+02 5.480517985928772760e+02 5.480147172966793505e+02 5.480420755576333249e+02 5.480219552394177072e+02 5.480101129857813476e+02 5.480027981280916265e+02 5.480330859794486287e+02 5.480367662596275977e+02 5.480829486978324212e+02 5.480075780309711035e+02 5.480301922199499813e+02 5.480474867582670413e+02 5.480925045013011641e+02 5.480273007685615312e+02 5.480636685567744735e+02 5.480095669318428691e+02 4.808478362332007805e+01
4.702990212595081942e+01 5.470853369082308291e+02 5.470559571321823569e+02 5.470034706713784090e+02 5.470726648507819618e+02 5.470863378657178373e+02 5.470758226370819557e+02 5.470384002544541318e+02 5.470289734059018656e+02 5.470344535329913924e+02 5.470515585409930281e+02 5.470936894118351574e+02 5.470094245588917374e+02 5.470000208266366144e+02 5.470775379503025988e+02 5.470484027915157412e+02 5.470476672647110945e+02 5.470394691746926128e+02 5.470828084379211305e+02 5.470130520064521988e+02 5.470377900758602436e+02 5.470320395272867700e+02 5.470586129020657609e+02 5.470662194675707042e+02 5.470969930444031206e+02 5.470404996181025581e+02 5.470465075038924851e+02 5.470509829908475012e+02 5.470191218106109545e+02 5.470728023975816541e+02 5.470914347520347292e+02 5.470604683068773966e+02 5.470984229728559285e+02 5.470344139621870454e+02 5.470899088294072499e+02 5.470318257440725347e+02 5.470741013991050750e+02 5.470562379113754332e+02 5.470243964110666184e+02 5.470408192880374827e+02 5.470010968069466344e+02 5.470277293730378005e+02 5.470492481285690474e+02 5.470813369625076348e+02 5.470828623794549230e+02 5.470505217945216145e+02 5.470420995507422504e+02 5.470464337459942499e+02 5.470531979120611368e+02 5.470060715524795114e+02 5.470567268448025970e+02 5.470627659818362645e+02 5.470393609855410659e+02 5.470766891986289693e+02 5.470582982746404923e+02 5.470271307316621687e+02 5.470224529392618251e+02 5.470893370751214206e+02 5.470176318651809879e+02 5.470893890077401238e+02 5.470982474086314369e+02 5.470675275941558766e+02 5.470075491291214576e+02 5.470502235850462966e+02 5.470521068642766522e+02 5.470588651944258345e+02 5.470574616108604005e+02 5.470637509311454778e+02 5.470557374920198299e+02 5.470085241131688463e+02 5.470373599259784214e+02 5.470853189657724442e+02 5.470298428981727739e+02 5.470821013328679783e+02 5.470238225286752822e+02 5.470206467821718661e+02 5.470208747776492828e+02 5.470684340803447867e+02 5.470488510780838851e+02 5.470033925999086932e+02 5.470356513917140546e+02 5.470879250596785823e+02 5.470506507496392032e+02 5.470514027302227760e+02 5.470901346121436291e+02 5.470844042956618978e+02 5.470809085818004860e+02 5.470534711161052428e+02 5.470548313649477450e+02 5.470307966355171629e+02 5.470683269785508855e+02 5.470042919206516672e+02 5.470953628506182440e+02 5.470017145544964023e+02 5.470930835054131194e+02 5.470602094321825462e+02 5.470658072346118388e+02 5.470295250952523247e+02 5.470923015872307360e+02 4.708392502346043074e+01
4.603676239949994908e+01 5.460963905666901610e+02 5.460584021677007058e+02 5.460151995336426580e+02 5.460084105508500443e+02 5.460848709862650594e+02 5.460034253073403079e+02 5.460455864212684673e+02 5.460256988116024104e+02 5.460491118604528538e+02 5.460792201702315651e+02 5.460125588743976550e+02 5.460477915472645236e+02 5.460407282962157751e+02 5.460265671588115310e+02 5.460293224985366578e+02 5.460364200262482655e+02 5.460620661841718402e+02 5.460255918581369770e+02 5.460915965755374373e+02 5.460100838456827432e+02 5.460342759970448014e+02 5.460798144017585400e+02 5.460830686296724252e+02 5.460663829043621718e+02 5.460291210917088165e+02 5.460481706239307869e+02 5.460335691899551875e+02 5.460902423942638961e+02 5.460170995479986686e+02 5.460857911992450227e+02 5.460039493242580875e+02 5.460743542714315026e+02 5.460846252343764036e+02 5.460861189945214846e+02 5.460336356297483462e+02 5.460208077157500384e+02 5.460894826277410630e+02 5.460422474051572408e+02 5.460329490228115219e+02 5.460168985416468104e+02 5.460223661557299693e+02 5.460014698631530337e+02 5.460041337655047755e+02 5.460638937024995130e+02 5.460638857028765187e+02 5.460605140112401159e+02 5.460560085903491654e+02 5.460341712602233883e+02 5.460698041771712496e+02 5.460859190825732412e+02 5.460476556958782339e+02 5.460293081559077564e+02 5.460804595912641162e+02 5.460166671148482465e+02 5.460990448955109287e+02 5.460256599774937740e+02 5.460787083156938024e+02 5.460351543496949489e+02 5.460701231989942244e+02 5.460014935443148261e+02 5.460252488986934623e+02 5.460396105148423658e+02 5.460662275806021171e+02 5.460797424021988036e+02 5.460267675872242989e+02 5.460512292951906375e+02 5.460542132255851584e+02 5.460787393053217329e+02 5.460455389898776275e+02 5.460395321059853586e+02 5.460740598048728316e+02 5.460023092468674122e+02 5.460175509839151573e+02 5.460946619173263343e+02 5.460408223597414690e+02 5.460389426522085614e+02 5.460042016393177846e+02 5.460182939510684719e+02 5.460007877200880557e+02 5.460777812616586289e+02 5.460585479294454672e+02 5.460307005145233461e+02 5.460425081834599723e+02 5.460740162945417069e+02 5.460905577909928752e+02 5.460240466881012935e+02 5.460054210708285609e+02 5.460711678582970308e+02 5.460827551682863259e+02 5.460134934129854400e+02 5.460130701853631763e+02 5.460149623786793427e+02 5.460842535070323720e+02 5.460095439434319360e+02 5.460393947327038404e+02 5.460167798190606163e+02 5.460924348324887205e+02 5.460700623969690923e+02 4.604306901218162551e+01
4.504104878240991638e+01 5.450591810302598788e+02 5.450586069959523456e+02 5.450366151544192235e+02 5.450792499651945491e+02 5.450906518118475788e+02 5.450360316004226888e+02 5.450900168848577323e+02 5.450792350559729584e+02 5.450485903554821334e+02 5.450590770840379946e+02 5.450906643180668425e+02 5.450076103003478920e+02 5.450302442907336626e+02 5.450577849091364442e+02 5.450304043815981458e+02 5.450943275439155968e+02 5.450739903488965865e+02 5.450151367596502041e+02 5.450054056723002986e+02 5.450115701868766109e+02 5.450903210153237524e+02 5.450168729464226089e+02 5.450555585381268884e+02 5.450689570835079394e+02 5.450368385307881454e+02 5.450033211374501434e+02 5.450100832652314011e+02 5.450658448240483267e+02 5.450158269244499252e+02 5.450959467624210220e+02 5.450015912243670755e+02 5.450956291477124296e+02 5.450723795452663580e+02 5.450723331992934391e+02 5.450154538846784362e+02 5.450748149640138536e+02 5.450035839520468244e+02 5.450678603386504619e+02 5.450775491513402358e+02 5.450728815716654481e+02 5.450856689281764602e+02 5.450634406725858980e+02 5.450257315265571378e+02 5.450092913551162610e+02 5.450164454746675347e+02 5.450138996169181382e+02 5.450297301846084110e+02 5.450088494568226452e+02 5.450572036604760342e+02 5.450419976672658322e+02 5.450869811812680155e+02 5.450778910745511894e+02 5.450922342026369734e+02 5.450728247380662879e+02 5.450150405029201011e+02 5.450214541379126558e+02 5.450131395797740197e+02 5.450147471746992096e+02 5.450948141516450960e+02 5.450355923099142501e+02 5.450261953740749732e+02 5.450386290294982246e+02 5.450119040818556186e+02 5.450189987839974037e+02 5.450762908800616060e+02 5.450124182678133593e+02 5.450285961088050044e+02 5.450014948377532846e+02 5.450281461690084370e+02 5.450250557100044944e+02 5.450500171436223127e+02 5.450524103873221975e+02 5.450832125307163096e+02 5.450883712329300579e+02 5.450711849491377734e+02 5.450807312986368061e+02 5.450570572243997276e+02 5.450376194041683675e+02 5.450949927992768380e+02 5.450274582125065308e+02 5.450293061906837693e+02 5.450308433675446622e+02 5.450247124829296581e+02 5.450241445972101246e+02 5.450366060503455401e+02 5.450923681708135291e+02 5.450815030773271701e+02 5.450229326897130022e+02 5.450096409792880650e+02 5.450878217222800686e+02 5.450762579405387669e+02 5.450041050658088579e+02 5.450090613588682800e+02 5.450639360955618713e+02 5.450248205695717161e+02 5.450688947433328622e+02 5.450732095785465390e+02 5.450567696376393769e+02 4.507567771270761625e+01
4.403260608231146023e+01 5.440713267164928766e+02 5.440710459014212574e+02 5.440261720232499556e+02 5.440012578185420580e+02 5.440618630838445142e+02 5.440839034669979810e+02 5.440505816637753469e+02 5.440009134907174939e+02 5.440733045201303639e+02 5.440016621755094093e+02 5.440043861521802455e+02 5.440071503496277501e+02 5.440154019603124880e+02 5.440311262985565008e+02 5.440003192397151679e+02 5.440631653556409901e+02 5.440926264762933897e+02 5.440215660384761804e+02 5.440671678568371590e+02 5.440401797079363178e+02 5.440910334459472324e+02 5.440153457856777095e+02 5.440741744924494014e+02 5.440778781631348693e+02 5.440921777056277051e+02 5.440574767966329546e+02 5.440473435961240511e+02 5.440216130284132987e+02 5.440391770051475078e+02 5.440240483350669365e+02 5.440480702425868458e+02 5.440333854522546062e+02 5.440981133151000222e+02 5.440113583871842593e+02 5.440787589293232713e+02 5.440026619994320072e+02 5.440881146014319256e+02 5.440817174941834082e+02 5.440418028478829910e+02 5.440113836949946062e+02 5.440024983854640368e+02 5.440809727217366571e+02 5.440452133786851618e+02 5.440027027718709860e+02 5.440961930745640984e+02 5.440959905768698945e+02 5.440623339927826692e+02 5.440941516828389695e+02 5.440678617376238435e+02 5.440008019724691621e+02 5.440301780780785066e+02 5.440912401709643973e+02 5.440663515792634826e+02 5.440877445490383479e+02 5.440284863032724161e+02 5.440669596782207691e+02 5.440639872425289241e+02 5.440200973388477905e+02 5.440550674823633699e+02 5.440103687756710542e+02 5.440508926952868478e+02 5.440926878416945556e+02 5.440335586896154609e+02 5.440481671763670874e+02 5.440561258852218316e+02 5.440280294019063376e+02 5.440794237308950869e+02 5.440977271532682380e+02 5.440684400375303085e+02 5.440177961850029078e+02 5.440657887167272975e+02 5.440004012934533648e+02 5.440364228613515252e+02 5.440206463998487152e+02 5.440867573860817856e+02 5.440057659807346226e+02 5.440749047089424266e+02 5.440210994166479850e+02 5.440080596380773841e+02 5.440478924936561498e+02 5.440939217323073080e+02 5.440073968273165974e+02 5.440041074457772083e+02 5.440801876120918905e+02 5.440066003392897755e+02 5.440118203232094629e+02 5.440896258424340886e+02 5.440418334012337027e+02 5.440185612492646214e+02 5.440063569356394737e+02 5.440892036164659658e+02 5.440223676483108193e+02 5.440562170364736403e+02 5.440527913819097421e+02 5.440043628649334551e+02 5.440776812196039600e+02 5.440744195064868336e+02 5.440519308833554533e+02 4.406162151314911313e+01
4.302639830978665003e+01 5.430657301023501304e+02 5.430492407800211367e+02 5.430001558014989769e+02 5.430355502452608789e+02 5.430615533227787637e+02 5.430891798154993921e+02 5.430531090277891053e+02 5.430296494850540512e+02 5.430985494624187595e+02 5.430778015393151463e+02 5.430327194591466196e+02 5.430251796101531454e+02 5.430753968950006083e+02 5.430611753944988322e+02 5.430589893185161827e+02 5.430908449222032459e+02 5.430333751145385577e+02 5.430819662492683619e+02 5.430171561168521066e+02 5.430772558635594578e+02 5.430767273839634299e+02 5.430679803557633250e+02 5.430374911512982408e+02 5.430965734217603540e+02 5.430727674023710279e+02 5.430474431236465307e+02 5.430543720120419948e+02 5.430513745692860539e+02 5.430448342114409570e+02 5.430581798045507185e+02 5.430452953071688853e+02 5.430382179483608525e+02 5.430475388979655236e+02 5.430844569349834501e+02 5.430078350346908564e+02 5.430619938618159495e+02 5.430062969137576374e+02 5.430048912901067979e+02 5.430564663948317730e+02 5.430066013845790849e+02 5.430971275409549435e+02 5.430885629958438585e+02 5.430787210439307273e+02 5.430312156900921536e+02 5.430655564163009785e+02 5.430814399714164438e+02 5.430074658607925358e+02 5.430970999883912782e+02 5.430565587804806000e+02 5.430509221823449479e+02 5.430566850938554353e+02 5.430093340485981344e+02 5.430512413198473496e+02 5.430903347173414204e+02 5.430147560841990071e+02 5.430557848715922091e+02 5.430610242837842634e+02 5.430005023889173117e+02 5.430644731296159762e+02 5.430009034146407885e+02 5.430744671881774366e+02 5.430905526850418710e+02 5.430263061615598872e+02 5.430449887626862164e+02 5.430308617613434308e+02 5.430977667384561300e+02 5.430058062565780119e+02 5.430723401539646602e+02 5.430613503933949460e+02 5.430481324546371980e+02 5.430276471073578932e+02 5.430573021092752697e+02 5.430091954666847869e+02 5.430966820856205004e+02 5.430096521017377427e+02 5.430746208809639484e+02 5.430107675696135630e+02 5.430756186686437559e+02 5.430593072666919170e+02 5.430121139304798135e+02 5.430014555605181386e+02 5.430834381153093773e+02 5.430431662506954353e+02 5.430466283971030634e+02 5.430690143129413627e+02 5.430900064985154359e+02 5.430102634633992693e+02 5.430990592693335657e+02 5.430511930228368556e+02 5.430375304036398347e+02 5.430786854699350670e+02 5.430596563325979105e+02 5.430623371671813402e+02 5.430572828175070299e+02 5.430164199811614480e+02 5.430835761852805490e+02 5.430491124169739123e+02 5.430318479935795040e+02 4.305199293444039910e+01
4.204785076139670963e+01 5.420003051787487038e+02 5.420239527252383596e+02 5.420600242667954944e+02 5.420396287025971560e+02 5.420345817305378660e+02 5.420968480984971620e+02 5.420860537923208540e+02 5.420844544871223434e+02 5.420913713830447023e+02 5.420773144177986751e+02 5.420487677653243281e+02 5.420412105690828639e+02 5.420392574170798525e+02 5.420138692114257992e+02 5.420949145305179400e+02 5.420095139280306284e+02 5.420524276186195038e+02 5.420225966727340392e+02 5.420290232878062398e+02 5.420327843882236039e+02 5.420681458043073917e+02 5.420327044363914410e+02 5.420751637029521817e+02 5.420342057517162857e+02 5.420887892973420321e+02 5.420659888734402330e+02 5.420785348477852494e+02 5.420905713131556922e+02 5.420717211570080281e+02 5.420753617122865080e+02 5.420201686792796636e+02 5.420962640606047671e+02 5.420050856187228874e+02 5.420824292970017950e+02 5.420241825224278500e+02 5.420868136044651919e+02 5.420972299463097670e+02 5.420060988910460082e+02 5.420520817636630682e+02 5.420734931017091185e+02 5.420771288172621780e+02 5.420884715411056050e+02 5.420025906139497920e+02 5.420346888531671539e+02 5.420279470372279320e+02 5.420919467030640817e+02 5.420634179312409060e+02 5.420599221837735513e+02 5.420871424001102241e+02 5.420201414366500785e+02 5.420426068803458293e+02 5.420186154198870554e+02 5.420810556872911548e+02 5.420409259933580870e+02 5.420689808144612698e+02 5.420516771967838849e+02 5.420594478465361590e+02 5.420802862314393451e+02 5.420726751003497839e+02 5.420621324566430985e+02 5.420330810913201276e+02 5.420314202807854826e+02 5.420291076919152147e+02 5.420293395326617656e+02 5.420821842961283892e+02 5.420666158416538565e+02 5.420960447624755716e+02 5.420320336046356715e+02 5.420110332520498559e+02 5.420879156549930258e+02 5.420951689573989825e+02 5.420908720258486255e+02 5.420175700433961765e+02 5.420847837219861276e+02 5.420776164243137600e+02 5.420673162037417114e+02 5.420474039530205346e+02 5.420484385166846550e+02 5.420780241392312746e+02 5.420113884665065598e+02 5.420052568977819192e+02 5.420029411992604764e+02 5.420269533367002168e+02 5.420278180051310528e+02 5.420606188171935855e+02 5.420576547886377057e+02 5.420753093307403105e+02 5.420659463505677422e+02 5.420572389775416013e+02 5.420571773676773546e+02 5.420007710641267522e+02 5.420036997267661718e+02 5.420677835670554714e+02 5.420102301988931686e+02 5.420232484375763988e+02 5.420093238073759494e+02 5.420646221091536745e+02 5.420779696143163164e+02 4.207825485392041287e+01
4.105915147824110534e+01 5.410765189633279988e+02 5.410474552424232115e+02 5.410646836301892790e+02 5.410279705553894019e+02 5.410163206726675753e+02 5.410272551924517757e+02 5.410758789530889317e+02 5.410358248444229048e+02 5.410066358562311279e+02 5.410516628548136850e+02 5.410748143413101161e+02 5.410881413024609401e+02 5.410173402112403664e+02 5.410438053637101348e+02 5.410089616024984025e+02 5.410483276197657005e+02 5.410959623436027641e+02 5.410975173795470710e+02 5.410351489569724208e+02 5.410290973136200137e+02 5.410126503814035459e+02 5.410699985649773680e+02 5.410423165610959586e+02 5.410962612684361375e+02 5.410040624437933729e+02 5.410930680837641376e+02 5.410660495212815704e+02 5.410819499880649346e+02 5.410917446114715403e+02 5.410359724035592990e+02 5.410249897603106319e+02 5.410389302184009921e+02 5.410998249407430194e+02 5.410042894245254956e+02 5.410852287874313333e+02 5.410715682913644287e+02 5.410052649873954351e+02 5.410667770254432298e+02 5.410953225790744909e+02 5.410019554286618586e+02 5.410478099446864917e+02 5.410888382182670284e+02 5.410470308885325039e+02 5.410140800680147777e+02 5.410892204661349751e+02 5.410889299900447895e+02 5.410358917354901678e+02 5.410381896009832872e+02 5.410939664982728345e+02 5.410927573862088593e+02 5.410863367788149390e+02 5.410673997672637370e+02 5.410538587960139694e+02 5.410978288050359879e+02 5.410862077271046928e+02 5.410158789724263215e+02 5.410948487399447231e+02 5.410352183069599050e+02 5.410609801401748200e+02 5.410159699542144836e+02 5.410738271571453879e+02 5.410356577659324557e+02 5.410347416236314757e+02 5.410450661632659148e+02 5.410537768931287701e+02 5.410601885323129636e+02 5.410628806089101772e+02 5.410010016808845421e+02 5.410537782077742577e+02 5.410413103694759229e+02 5.410498485905721964e+02 5.410349947806373621e+02 5.410394185978349242e+02 5.410054767688932316e+02 5.410970011746161390e+02 5.410424079989368238e+02 5.410451415064852654e+02 5.410845693401792005e+02 5.410413854635177131e+02 5.410108295922781281e+02 5.410608617558239075e+02 5.410495849843457563e+02 5.410088779443425437e+02 5.410726700809276508e+02 5.410471925984303425e+02 5.410237926978554697e+02 5.410974821509453250e+02 5.410037277823976183e+02 5.410195170187517988e+02 5.410112824729369549e+02 5.410901176504085015e+02 5.410067297718746886e+02 5.410516388431451560e+02 5.410090314313816862e+02 5.410250877689713889e+02 5.410929811575098256e+02 5.410939965628593882e+02 5.410698160632883855e+02 4.102777010749735354e+01
4.009009667908227925e+01 5.400069205030288231e+02 5.400189341831239744e+02 5.400722011350624143e+02 5.400461273819329335e+02 5.400457580123977550e+02 5.400967610289203549e+02 5.400484679485698507e+02 5.400418196640559927e+02 5.400058706294431659e+02 5.400434316694481822e+02 5.400891589679417848e+02 5.400119939428616362e+02 5.400498746091993780e+02 5.400199045956700274e+02 5.400965610045404901e+02 5.400159783868534760e+02 5.400151912516106449e+02 5.400339020461588007e+02 5.400913537437663763e+02 5.400945797010894012e+02 5.400720688546693964e+02 5.400664063604147032e+02 5.400684297083511183e+02 5.400819035088724149e+02 5.400261651203965130e+02 5.400977979405607812e+02 5.400455004696781316e+02 5.400676421830133904e+02 5.400979785490716267e+02 5.400359696402665577e+02 5.400210829261105800e+02 5.400777764626960789e+02 5.400702490569431120e+02 5.400773752162176606e+02 5.400211792290965604e+02 5.400449371090243176e+02 5.400509093842317725e+02 5.400367190777453743e+02 5.400843363696685628e+02 5.400313161862669631e+02 5.400285275288931643e+02 5.400215174710203883e+02 5.400708813971688187e+02 5.400844520627516658e+02 5.400761056166440994e+02 5.400295522536370072e+02 5.400605515703988431e+02 5.400753198034099114e+02 5.400358740719638035e+02 5.400010709096765140e+02 5.400401415793756996e+02 5.400670933471609487e+02 5.400659095336600330e+02 5.400183200346762078e+02 5.400749104550052380e+02 5.400617016713908924e+02 5.400715841100978878e+02 5.400275557986979038e+02 5.400435085154357466e+02 5.400909967817424331e+02 5.400570279064775150e+02 5.400842574608676614e+02 5.400471711926209082e+02 5.400006900159552288e+02 5.400194656941933999e+02 5.400596075381619130e+02 5.400089525025588273e+02 5.400783271829236583e+02 5.400708997332369563e+02 5.400682693493936313e+02 5.400976132768073512e+02 5.400770198906554924e+02 5.400608687769673679e+02 5.400331972026735912e+02 5.400109412119234094e+02 5.400376669555068929e+02 5.400430279115479379e+02 5.400909122447912978e+02 5.400234548753815034e+02 5.400541080711749373e+02 5.400124341805026233e+02 5.400884946600825742e+02 5.400683447262076697e+02 5.400860438320397634e+02 5.400290053351401411e+02 5.400282819039476863e+02 5.400024589519787241e+02 5.400877020300299591e+02 5.400379788139908896e+02 5.400641139200263297e+02 5.400359999012543994e+02 5.400952527588640351e+02 5.400548675170200568e+02 5.400333762195717782e+02 5.400357706727360210e+02 5.400717627536578220e+02 5.400770433596549083e+02 5.400868137574810817e+02 4.002086981919055830e+01
3.904715438695229324e+01 5.390804489285806085e+02 5.390325358845743722e+02 5.390422250362751129e+02 5.390137686724160631e+02 5.390654246632655031e+02 5.390856851867065416e+02 5.390647341502174186e+02 5.390850799111619835e+02 5.390840827630686363e+02 5.390131777283315841e+02 5.390372407081820256e+02 5.390744102071034831e+02 5.390853043391405208e+02 5.390928796220940740e+02 5.390532715508210231e+02 5.390988364625687836e+02 5.390573313017669079e+02 5.390700154316499493e+02 5.390783922605604630e+02 5.390129601314716865e+02 5.390968537420618532e+02 5.390682159339063446e+02 5.390553588724650353e+02 5.390624122984013411e+02 5.390365136460661688e+02 5.390348996587864576e+02 5.390161239595167899e+02 5.390324126741554664e+02 5.390466241117106847e+02 5.390752195978933514e+02 5.390136630833826530e+02 5.390031649613285936e+02 5.390337736517896019e+02 5.390487181290201306e+02 5.390413881716382321e+02 5.390287480029462586e+02 5.390353899074309538e+02 5.390602017861399418e+02 5.390011990223905514e+02 5.390075780994737897e+02 5.390209099874089134e+02 5.390883987822012386e+02 5.390706029422397023e+02 5.390015087011864807e+02 5.390042800967318044e+02 5.390277380939480736e+02 5.390702406854551327e+02 5.390939840683462307e+02 5.390212002929109758e+02 5.390499821302997816e+02 5.390535692617287395e+02 5.390410841827979311e+02 5.390733921411983829e+02 5.390802507988545358e+02 5.390689362823603688e+02 5.390858804430259852e+02 5.390343229765256865e+02 5.390147338547427580e+02 5.390315220750898106e+02 5.390608816396114662e+02 5.390160828912852367e+02 5.390293308384636930e+02 5.390511910155795476e+02 5.390878307124153253e+02 5.390892548318838635e+02 5.390088787568199677e+02 5.390097836443858341e+02 5.390713745766619240e+02 5.390750261338798737e+02 5.390580504682587843e+02 5.390797098901223308e+02 5.390217216385702841e+02 5.390267013886634686e+02 5.390710440142672724e+02 5.390140272645087407e+02 5.390570152734671865e+02 5.390048022205371581e+02 5.390341036327978372e+02 5.390013187800894912e+02 5.390492660877159778e+02 5.390042040337128810e+02 5.390049983603704504e+02 5.390516106957495595e+02 5.390347344466159711e+02 5.390178350967009919e+02 5.390220401708324971e+02 5.390276543519890993e+02 5.390699945427080593e+02 5.390821606911064237e+02 5.390654006458771619e+02 5.390917740505881284e+02 5.390591604141166044e+02 5.390755341541442931e+02 5.390862302810354549e+02 5.390987692228471815e+02 5.390115613812050697e+02 5.390855160085383204e+02 5.390154917670475925e+02 3.904302771832423957e+01
3.800309676478022425e+01 5.380714950380743176e+02 5.380731273110933444e+02 5.380886107157738252e+02 5.380807594363905082e+02 5.380716309275208005e+02 5.380335458842848766e+02 5.380172022883411955e+02 5.380032093537965920e+02 5.380867219441289535e+02 5.380248764701315167e+02 5.380128514239806918e+02 5.380534022280928639e+02 5.380269105232441689e+02 5.380638218913252331e+02 5.380990123126750859e+02 5.380422834400840202e+02 5.380570999812348418e+02 5.380013904444026593e+02 5.380505244829317917e+02 5.380462421402603468e+02 5.380699478253886809e+02 5.380255832262771492e+02 5.380520149961980678e+02 5.380093649829049127e+02 5.380256600895144175e+02 5.380657641194244434e+02 5.380782392903852269e+02 5.380277239978451007e+02 5.380336364887650689e+02 5.380400467589253140e+02 5.380471778580089222e+02 5.380820647624055937e+02 5.380253480755634428e+02 5.380109723206830949e+02 5.380489539628333659e+02 5.380344106035918230e+02 5.380113505324758307e+02 5.380265566509687005e+02 5.380781757712426270e+02 5.380862750939545549e+02 5.380542235019083819e+02 5.380885986308441034e+02 5.380916745034521682e+02 5.380945819615059236e+02 5.380053427914677968e+02 5.380727630432951401e+02 5.380923354488051018e+02 5.380054889287026754e+02 5.380317334801177367e+02 5.380956593127452834e+02 5.380619151628781083e+02 5.380249790033388990e+02 5.380900152214833270e+02 5.380936387657748128e+02 5.380800381854156740e+02 5.380931761483643641e+02 5.380404118323605189e+02 5.380316253639741717e+02 5.380193416203661627e+02 5.380496460862945014e+02 5.380074366143085172e+02 5.380645449612839002e+02 5.380331206372361521e+02 5.380338111378855501e+02 5.380695156555201493e+02 5.380985053128059690e+02 5.380495975132187141e+02 5.380955044504385114e+02 5.380688609610317599e+02 5.380302012058592709e+02 5.380640312674219103e+02 5.380389261062567812e+02 5.380979511332935772e+02 5.380087138431709946e+02 5.380375341461931384e+02 5.380022732443389941e+02 5.380752335772302786e+02 5.380921170278695627e+02 5.380974675067064936e+02 5.380026821832778978e+02 5.380736775425332326e+02 5.380960221507666574e+02 5.380435011247925559e+02 5.380538499227418470e+02 5.380290642286724960e+02 5.380426172942894709e+02 5.380644078056710669e+02 5.380923535916127776e+02 5.380857709853142978e+02 5.380339501620309193e+02 5.380019340391494325e+02 5.380370997694178641e+02 5.380240953257240335e+02 5.380621723618045280e+02 5.380744663020672078e+02 5.380847464122596193e+02 5.380142209488925573e+02 5.380418917592575099e+02 3.802427392960625951e+01
3.707494297770287517e+01 5.370295226530563468e+02 5.370654731741028627e+02 5.370289543750269559e+02 5.370095106150635047e+02 5.370351817303518374e+02 5.370838978533871568e+02 5.370110272234479680e+02 5.370850458756375474e+02 5.370113963206690642e+02 5.370091758968524118e+02 5.370804651661035223e+02 5.370101220987414763e+02 5.370648832610385170e+02 5.370392430959036574e+02 5.370844662471328093e+02 5.370060303713778467e+02 5.370177949582210886e+02 5.370655022483516632e+02 5.370514484374289168e+02 5.370893896948964539e+02 5.370145940123860555e+02 5.370857858286980218e+02 5.370191723283554666e+02 5.370427900702728721e+02 5.370292424298233982e+02 5.370460741464426064e+02 5.370680644588825317e+02 5.370246443489349986e+02 5.370492612159935106e+02 5.370410026002432460e+02 5.370004071143292776e+02 5.370308676742126863e+02 5.370671142927204755e+02 5.370321530349972363e+02 5.370297957563934688e+02 5.370621977986234015e+02 5.370367287871869166e+02 5.370452587207730630e+02 5.370067125057756812e+02 5.370257755780352227e+02 5.370367287399647012e+02 5.370427616843689975e+02 5.370880901844180926e+02 5.370072628862267266e+02 5.370233140891193671e+02 5.370153522821022989e+02 5.370146280054892713e+02 5.370792331191029234e+02 5.370991826418718347e+02 5.370573963903685808e+02 5.370224317211049083e+02 5.370604169521876656e+02 5.370464916490896030e+02 5.370820658203153926e+02 5.370094380021670304e+02 5.370554704556898287e+02 5.370583323716086852e+02 5.370674669934238636e+02 5.370389452780806323e+02 5.370556189963348288e+02 5.370299716542176611e+02 5.370449657142019078e+02 5.370506764945749865e+02 5.370118201618342937e+02 5.370072584595295666e+02 5.370927693245050705e+02 5.370451915114587109e+02 5.370750621693954372e+02 5.370985760707243344e+02 5.370347085697167131e+02 5.370451213703959183e+02 5.370309943369079519e+02 5.370555687788709065e+02 5.370982233991171597e+02 5.370571211165082559e+02 5.370944766905494134e+02 5.370734078389624528e+02 5.370533393816208445e+02 5.370314046933209511e+02 5.370772392248886717e+02 5.370176156745433218e+02 5.370793157560240161e+02 5.370805066816620865e+02 5.370655734486738311e+02 5.370803208383589435e+02 5.370966732275055620e+02 5.370910705544852135e+02 5.370233316253458042e+02 5.370082274639156594e+02 5.370434831667636217e+02 5.370776821700429764e+02 5.370777246199156707e+02 5.370782123830518913e+02 5.370706746294551976e+02 5.370008540093667762e+02 5.370248778023463956e+02 5.370793979705431411e+02 5.370801515461461122e+02 3.701740335600928233e+01
3.605538177204173422e+01 5.360111780882132280e+02 5.360076762000046529e+02 5.360324166840205180e+02 5.360986823642798527e+02 5.360823107465640760e+02 5.360830838218969348e+02 5.360617089393555261e+02 5.360485530537307568e+02 5.360559298739879068e+02 5.360762179516794959e+02 5.360364519813906554e+02 5.360356745057564467e+02 5.360409437445082403e+02 5.360104238675309034e+02 5.360974790293234946e+02 5.360389936094029508e+02 5.360030186212632088e+02 5.360564648448862499e+02 5.360336123697043149e+02 5.360225662581027564e+02 5.360724978299181203e+02 5.360573581564071901e+02 5.360187570828253456e+02 5.360819033341185786e+02 5.360971832496843490e+02 5.360475934745043105e+02 5.360993686013276829e+02 5.360781426934640876e+02 5.360543338567008504e+02 5.360629417832986974e+02 5.360024028505680462e+02 5.360002239015469740e+02 5.360072528023131326e+02 5.360702701444281502e+02 5.360856532244512209e+02 5.360524692026683624e+02 5.360318070253274527e+02 5.360871699246696380e+02 5.360216005570252946e+02 5.360478544656966733e+02 5.360724895368492753e+02 5.360384251535461999e+02 5.360238048584423041e+02 5.360233009451059161e+02 5.360482715616182077e+02 5.360400338253060681e+02 5.360106470700563932e+02 5.360526668529661265e+02 5.360092147658020849e+02 5.360639262648745671e+02 5.360501572443450868e+02 5.360577433732996724e+02 5.360319061327280679e+02 5.360668633731396540e+02 5.360182226774940091e+02 5.360359130762061568e+02 5.360683841016827955e+02 5.360419303680920393e+02 5.360677332191816049e+02 5.360560593998808372e+02 5.360727990310992936e+02 5.360421323781678211e+02 5.360040186823769091e+02 5.360857928611384295e+02 5.360646348664206471e+02 5.360389377256573198e+02 5.360620863803982274e+02 5.360157021745114889e+02 5.360656387195076604e+02 5.360180670941450671e+02 5.360769511214652994e+02 5.360583432288527774e+02 5.360995227455906615e+02 5.360236597697484058e+02 5.360091927882680238e+02 5.360529695266607177e+02 5.360687650571950371e+02 5.360540701996256985e+02 5.360576172725781134e+02 5.360335234238885960e+02 5.360067962322480071e+02 5.360367108093997786e+02 5.360645001105117444e+02 5.360548803756041707e+02 5.360939820530618363e+02 5.360426706890867763e+02 5.360528469122288016e+02 5.360417761547540749e+02 5.360356815705001736e+02 5.360185158703091020e+02 5.360324736047398346e+02 5.360839649923861998e+02 5.360673877590120355e+02 5.360630413427244321e+02 5.360603817600891716e+02 5.360872380947475904e+02 5.360860476969506863e+02 5.360912704966724505e+02 3.601773745726026732e+01
3.508123091546170258e+01 5.350120357519303980e+02 5.350375283191134486e+02 5.350828874160272335e+02 5.350836459965055383e+02 5.350806785742696547e+02 5.350562558591775542e+02 5.350059302772646106e+02 5.350203471950783296e+02 5.350704245405255506e+02 5.350247613016215382e+02 5.350876974220406055e+02 5.350002975427281626e+02 5.350193623196370254e+02 5.350494265338319337e+02 5.350856711654533910e+02 5.350813302453590268e+02 5.350961421781955778e+02 5.350805680827297692e+02 5.350396606479278034e+02 5.350350929366234141e+02 5.350606970518599610e+02 5.350686438598329460e+02 5.350879960328552443e+02 5.350170676551077804e+02 5.350438984250760086e+02 5.350194398371689886e+02 5.350624029384125606e+02 5.350110301006335476e+02 5.350437555430117982e+02 5.350952104367382844e+02 5.350650589399141381e+02 5.350719959555084415e+02 5.350360851674959122e+02 5.350702343108964669e+02 5.350266744330066331e+02 5.350325727774932147e+02 5.350035196600757672e+02 5.350368078987302169e+02 5.350718051775628510e+02 5.350121859362252508e+02 5.350659985710142337e+02 5.350887490950458414e+02 5.350707538509417418e+02 5.350495681631454090e+02 5.350971674517329575e+02 5.350453848001831147e+02 5.350098990634133997e+02 5.350143503519998376e+02 5.350076973896536856e+02 5.350515559094301352e+02 5.350124699611208143e+02 5.350439472805054493e+02 5.350083848852773372e+02 5.350362792260157221e+02 5.350209195295291238e+02 5.350999151017433633e+02 5.350149348011373149e+02 5.350406412098947158e+02 5.350904519407231419e+02 5.350125125432198274e+02 5.350057894740681377e+02 5.350146943622956996e+02 5.350504644470344147e+02 5.350195684811734509e+02 5.350765630730113571e+02 5.350466026755913163e+02 5.350659341918241125e+02 5.350598384213827785e+02 5.350327826705729422e+02 5.350321314849991268e+02 5.350582139262307919e+02 5.350333279668628848e+02 5.350615071594639858e+02 5.350895790867970163e+02 5.350784902999151882e+02 5.350308808213725342e+02 5.350949352272755277e+02 5.350634934328202235e+02 5.350030872729821567e+02 5.350524170802025310e+02 5.350064553896007737e+02 5.350376556664438112e+02 5.350778680542931625e+02 5.350668047333913364e+02 5.350697846035163820e+02 5.350354609881786700e+02 5.350153845066270151e+02 5.350953913096949464e+02 5.350193797542789298e+02 5.350586414910802660e+02 5.350608918116467976e+02 5.350645959598047057e+02 5.350981148876198858e+02 5.350409735200015575e+02 5.350033164029089221e+02 5.350081806098478410e+02 5.350483925040613258e+02 5.350031873117496843e+02 3.504533637130032275e+01
3.400134185191030411e+01 5.340637686952976537e+02 5.340409329290772575e+02 5.340448594682942485e+02 5.340721396138220598e+02 5.340198172271093426e+02 5.340818641176742858e+02 5.340948990430921413e+02 5.340187015005316198e+02 5.340672701512220328e+02 5.340453215611877340e+02 5.340782318557143071e+02 5.340662848578764397e+02 5.340671997108690903e+02 5.340081122703614938e+02 5.340983119999347082e+02 5.340271244592242965e+02 5.340014398673329197e+02 5.340987530519479378e+02 5.340896828198350477e+02 5.340403373191022638e+02 5.340043594604383088e+02 5.340448751975799269e+02 5.340559986382334046e+02 5.340885686827695054e+02 5.340518836004199557e+02 5.340936481550771759e+02 5.340916181050936302e+02 5.340723831583421770e+02 5.340251263632128484e+02 5.340003225332962984e+02 5.340315046484680579e+02 5.340089066979755899e+02 5.340625972461017454e+02 5.340254470192631970e+02 5.340149734998539088e+02 5.340374458429578226e+02 5.340290649431199199e+02 5.340199121707076984e+02 5.340404839354537216e+02 5.340748340967520562e+02 5.340681002628937222e+02 5.340122476871958952e+02 5.340242581694062665e+02 5.340574056854377432e+02 5.340539519794158423e+02 5.340502148778197125e+02 5.340806401144189977e+02 5.340229139133425633e+02 5.340423998050137016e+02 5.340172333097664250e+02 5.340821687048605781e+02 5.340581024603268361e+02 5.340726097523903491e+02 5.340724484519543012e+02 5.340148199757707062e+02 5.340141176607008902e+02 5.340268351496815740e+02 5.340536233032474911e+02 5.340740924130249141e+02 5.340713124640698197e+02 5.340300644980906100e+02 5.340790182635971632e+02 5.340983382878791872e+02 5.340873854585738627e+02 5.340340709609874921e+02 5.340828542709044768e+02 5.340519010745159676e+02 5.340626560058332188e+02 5.340791077529177073e+02 5.340738038254843332e+02 5.340436296489122014e+02 5.340733130312740968e+02 5.340680701000926547e+02 5.340230621219260456e+02 5.340298235124766961e+02 5.340793834470927095e+02 5.340963669323324439e+02 5.340554666220208446e+02 5.340457027687245954e+02 5.340869948800287830e+02 5.340295464613725471e+02 5.340643311062974590e+02 5.340723299191269007e+02 5.340637327040632272e+02 5.340344809639520918e+02 5.340544915986187107e+02 5.340049841657390743e+02 5.340233097213809970e+02 5.340965389516175037e+02 5.340145414654191427e+02 5.340307219159805072e+02 5.340056410573051835e+02 5.340015083122851820e+02 5.340314657186057730e+02 5.340781734799365950e+02 5.340592591702212530e+02 5.340704767284566969e+02 5.340487379891513910e+02 3.402776309839987334e+01
3.302541032332596416e+01 5.330590740599111541e+02 5.330402800067647604e+02 5.330984871350466392e+02 5.330647201502538337e+02 5.330134696045474811e+02 5.330326480987041577e+02 5.330091969945539176e+02 5.330141313308073450e+02 5.330299598074294636e+02 5.330158738257810001e+02 5.330298323505712688e+02 5.330056517324063634e+02 5.330991545641779794e+02 5.330889079588007462e+02 5.330106032999112813e+02 5.330510473224148882e+02 5.330718257021367208e+02 5.330185594965057589e+02 5.330359332463553983e+02 5.330907220517133283e+02 5.330334512175112422e+02 5.330294017282075174e+02 5.330734130455150535e+02 5.330301897406745866e+02 5.330253695736370219e+02 5.330757064665903044e+02 5.330685903977866928e+02 5.330762448609044668e+02 5.330891396026054281e+02 5.330016422506366780e+02 5.330614230189121372e+02 5.330455481478674074e+02 5.330864695183474851e+02 5.330744512933757733e+02 5.330245019378997995e+02 5.330374384061080946e+02 5.330278274242035650e+02 5.330223974114949215e+02 5.330406934057422177e+02 5.330553922760254864e+02 5.330267262258749952e+02 5.330502636015901317e+02 5.330444217606791426e+02 5.330821504049343957e+02 5.330837768101542906e+02 5.330972352926346502e+02 5.330401513806295952e+02 5.330564698269997734e+02 5.330293133719383150e+02 5.330137333987689772e+02 5.330301046448640818e+02 5.330329877053894734e+02 5.330265216746935266e+02 5.330236360040897807e+02 5.330709318488538884e+02 5.330422271151925315e+02 5.330552143759873616e+02 5.330286223932374696e+02 5.330801495779188599e+02 5.330591086121556827e+02 5.330620453284800533e+02 5.330409005981028940e+02 5.330305012752887706e+02 5.330397146189874320e+02 5.330773534946561085e+02 5.330757463490296004e+02 5.330476559675403223e+02 5.330160648235853387e+02 5.330113058259839818e+02 5.330880297788204416e+02 5.330156982009090143e+02 5.330078693199626514e+02 5.330538980403222240e+02 5.330725996135259948e+02 5.330053743485379982e+02 5.330646932663761390e+02 5.330645112714989864e+02 5.330719876385601310e+02 5.330357650276633876e+02 5.330664647186896445e+02 5.330859067092370651e+02 5.330210457611676702e+02 5.330962144096064321e+02 5.330685804054917298e+02 5.330725508393823020e+02 5.330123199894999289e+02 5.330474584294609031e+02 5.330006644338892556e+02 5.330511839697404639e+02 5.330773786364027274e+02 5.330064066865515997e+02 5.330662003550451118e+02 5.330995767156916827e+02 5.330350893275825683e+02 5.330423566451058832e+02 5.330923939065525019e+02 5.330430618776506435e+02 5.330085406639092298e+02 3.306750208996811580e+01
3.207366858460645176e+01 5.320871870125831720e+02 5.320602039009397686e+02 5.320309812033485741e+02 5.320865343374634904e+02 5.320983691367542860e+02 5.320639173410122567e+02 5.320437643101105323e+02 5.320821587307433447e+02 5.320540670632523188e+02 5.320457939330892714e+02 5.320818860139393109e+02 5.320234408515025279e+02 5.320985505416925889e+02 5.320870433827107036e+02 5.320427526240927136e+02 5.320209627868481448e+02 5.320845866779873177e+02 5.320264596056815662e+02 5.320220029800965449e+02 5.320106441106385091e+02 5.320934590475758341e+02 5.320202734014642374e+02 5.320903315811568746e+02 5.320617248841750779e+02 5.320402462709263318e+02 5.320569032952323596e+02 5.320830279184010578e+02 5.320180639175802071e+02 5.320904469534719965e+02 5.320697761387152696e+02 5.320652464586979704e+02 5.320337789875327417e+02 5.320384599475125924e+02 5.320181700428751128e+02 5.320629660247118409e+02 5.320742600345505480e+02 5.320248180758011358e+02 5.320314491454066683e+02 5.320280796355770008e+02 5.320463448089790290e+02 5.320278594804368595e+02 5.320007748495793294e+02 5.320639646322164253e+02 5.320468175431116151e+02 5.320738644962037824e+02 5.320448413876994209e+02 5.320032024146196363e+02 5.320414656663911046e+02 5.320037024108412425e+02 5.320565745161674158e+02 5.320661841349038923e+02 5.320330360556270080e+02 5.320250151432750272e+02 5.320238232292178964e+02 5.320267703895177647e+02 5.320752421116706046e+02 5.320661597163624492e+02 5.320626588281079421e+02 5.320022280912442056e+02 5.320955221829094626e+02 5.320350156131947870e+02 5.320703911625445244e+02 5.320636761854334509e+02 5.320437668252004642e+02 5.320477285405090697e+02 5.320033866499910573e+02 5.320240776418221458e+02 5.320753549098396888e+02 5.320139637386438380e+02 5.320642469755808861e+02 5.320693707770017227e+02 5.320641210405560741e+02 5.320386449573161372e+02 5.320727363950586550e+02 5.320188471514726416e+02 5.320561984847557824e+02 5.320970093530984286e+02 5.320844086181390367e+02 5.320257337189740383e+02 5.320430109519080588e+02 5.320413789819472186e+02 5.320536063944899752e+02 5.320755730134300165e+02 5.320322768491288343e+02 5.320381325650151894e+02 5.320583364908545718e+02 5.320837833154500913e+02 5.320004140767088074e+02 5.320151117938694370e+02 5.320884238638278703e+02 5.320907334191552991e+02 5.320634556348617252e+02 5.320961609230153044e+02 5.320697360445808499e+02 5.320389163976933560e+02 5.320612148964785320e+02 5.320740478657124868e+02 5.320652714630672335e+02 3.206751368326401774e+01
3.103474999955651370e+01 5.310454024313248738e+02 5.310169018315848461e+02 5.310080025410771896e+02 5.310322866478443302e+02 5.310923439428987649e+02 5.310482196569016651e+02 5.310142857590585663e+02 5.310005668138423971e+02 5.310857810317324947e+02 5.310292517514862993e+02 5.310980694057723213e+02 5.310513244725857476e+02 5.310824103048865936e+02 5.310861832419982420e+02 5.310153355449168657e+02 5.310536361536848062e+02 5.310117235380279226e+02 5.310511134622704503e+02 5.310312348945087706e+02 5.310218217163779855e+02 5.310029593904853300e+02 5.310060982287155866e+02 5.310621711356320702e+02 5.310975255996593205e+02 5.310217704684436058e+02 5.310714429822935472e+02 5.310774662332488560e+02 5.310625312958197810e+02 5.310930307723166379e+02 5.310355913785961093e+02 5.310844229197277855e+02 5.310166651472151216e+02 5.310131140612148783e+02 5.310028068733148530e+02 5.310854180281711479e+02 5.310069779536885335e+02 5.310839042647062342e+02 5.310093843320792075e+02 5.310482415466660768e+02 5.310241166141254325e+02 5.310513294614814868e+02 5.310655018018362625e+02 5.310432738264752288e+02 5.310444382819612201e+02 5.310304071558210808e+02 5.310487190106002799e+02 5.310621582779333494e+02 5.310995269830415282e+02 5.310116036173723160e+02 5.310991152019265655e+02 5.310563658016903901e+02 5.310565764665911956e+02 5.310829927025069992e+02 5.310588906693176341e+02 5.310870396240846958e+02 5.310812758301890426e+02 5.310269579714575912e+02 5.310809457458328779e+02 5.310697400111572506e+02 5.310451956440797403e+02 5.310010268851038973e+02 5.310676600854496883e+02 5.310696611896433978e+02 5.310998940143837217e+02 5.310822446627446425e+02 5.310150235077165917e+02 5.310940946726625498e+02 5.310567708867941974e+02 5.310207179969625031e+02 5.310798521283952596e+02 5.310432235139843442e+02 5.310955502120158371e+02 5.310380130900430231e+02 5.310244833132987878e+02 5.310042853759777017e+02 5.310333828423687237e+02 5.310547401122569227e+02 5.310393262045355414e+02 5.310721421659228554e+02 5.310088992874502765e+02 5.310000216818954186e+02 5.310119692821616582e+02 5.310282499923188197e+02 5.310504365120796137e+02 5.310340474077819408e+02 5.310145873175591760e+02 5.310071895538146691e+02 5.310880180232521752e+02 5.310370955124653847e+02 5.310736219427368496e+02 5.310507980984650658e+02 5.310476352136590776e+02 5.310961461782819697e+02 5.310710374685437500e+02 5.310993716650185661e+02 5.310564162241415715e+02 5.310705231913391344e+02 5.310569281259449781e+02 3.107019212323357493e+01
3.004228991416757566e+01 5.300354634023528888e+02 5.300829818734323453e+02 5.300211841101304344e+02 5.300418960367413774e+02 5.300038159252749210e+02 5.300499375119048864e+02 5.300453380048073768e+02 5.300475706262504900e+02 5.300023442460867500e+02 5.300831037527707394e+02 5.300955668362208826e+02 5.300088176564594278e+02 5.300247134751534759e+02 5.300353892185024733e+02 5.300076866992141049e+02 5.300576994747339086e+02 5.300251694528813005e+02 5.300572766193714642e+02 5.300328763401456627e+02 5.300216861106327997e+02 5.300978386130128683e+02 5.300664290751869885e+02 5.300046593313113590e+02 5.300239700373564347e+02 5.300540347026183099e+02 5.300686693865725374e+02 5.300026512975520063e+02 5.300749136625331630e+02 5.300330570459659612e+02 5.300280419497939874e+02 5.300333929627734051e+02 5.300870854244888051e+02 5.300788906920259933e+02 5.300170165833169449e+02 5.300050310203042727e+02 5.300882895653166997e+02 5.300303734662003308e+02 5.300359712720843390e+02 5.300433178053914389e+02 5.300489834046271653e+02 5.300567108708236219e+02 5.300535312477829848e+02 5.300046232108379627e+02 5.300841576022149866e+02 5.300314414721724461e+02 5.300392709390223445e+02 5.300376021821284667e+02 5.300269199909089366e+02 5.300670114514342686e+02 5.300886635324334293e+02 5.300089971245793095e+02 5.300487763873703670e+02 5.300607331474058128e+02 5.300373991557030422e+02 5.300862106074990834e+02 5.300235020391793341e+02 5.300026906891503131e+02 5.300070516606399451e+02 5.300713698230392765e+02 5.300199376361407531e+02 5.300215757091471005e+02 5.300313086779290188e+02 5.300952264486173817e+02 5.300590761126192092e+02 5.300116698646855866e+02 5.300892722416579090e+02 5.300677019503893916e+02 5.300819790530326827e+02 5.300334311294197960e+02 5.300001082683811546e+02 5.300728331678202494e+02 5.300574807393621768e+02 5.300493200783853354e+02 5.300185772334532430e+02 5.300634125395877163e+02 5.300114479417209168e+02 5.300219824359945733e+02 5.300650452808506543e+02 5.300145491738661576e+02 5.300873157151661417e+02 5.300383563139859007e+02 5.300574681987892518e+02 5.300645016003787759e+02 5.300788378553930897e+02 5.300990485979031064e+02 5.300324344778374552e+02 5.300045797512897252e+02 5.300602950469816506e+02 5.300853057361472338e+02 5.300143059905088876e+02 5.300597625148899397e+02 5.300951622673230759e+02 5.300751113836552122e+02 5.300099511336711657e+02 5.300748276534332035e+02 5.300707774732574080e+02 5.300046218155463293e+02 5.300731385794774724e+02 3.005391874117148987e+01
2.902893750891725588e+01 5.290275759736416603e+02 5.290632820952446309e+02 5.290807187110920040e+02 5.290484264237742309e+02 5.290422917529311917e+02 5.290935354259429459e+02 5.290564552206998314e+02 5.290825145420054696e+02 5.290561009585420607e+02 5.290829884077198813e+02 5.290016244657152811e+02 5.290318894397178155e+02 5.290793858631345756e+02 5.290860909967533416e+02 5.290094239319581675e+02 5.290130583199174907e+02 5.290341915575471603e+02 5.290415310014601573e+02 5.290055533439220881e+02 5.290053627109095942e+02 5.290563715998524685e+02 5.290379684090955834e+02 5.290753074402160792e+02 5.290827060597420086e+02 5.290218168456379999e+02 5.290031883899340528e+02 5.290502962241495197e+02 5.290608361483275530e+02 5.290884136331083027e+02 5.290697025433439649e+02 5.290529843033846191e+02 5.290830060417960112e+02 5.290316531975979615e+02 5.290117519341432626e+02 5.290982749643331999e+02 5.290192170728161045e+02 5.290050850778943641e+02 5.290551691482269234e+02 5.290944251483914513e+02 5.290711211676082257e+02 5.290265903520808024e+02 5.290050463733476818e+02 5.290970021433153079e+02 5.290071369773355627e+02 5.290647905612141813e+02 5.290770723007326524e+02 5.290221726983885446e+02 5.290600815173263527e+02 5.290844911569879514e+02 5.290656500635624298e+02 5.290178678876444565e+02 5.290608698225581747e+02 5.290797440512811818e+02 5.290539177383462857e+02 5.290624437648046978e+02 5.290626053986501347e+02 5.290669802115205584e+02 5.290947150384390625e+02 5.290931092137931273e+02 5.290965732751940322e+02 5.290744926855284120e+02 5.290709077892279311e+02 5.290839584446346180e+02 5.290694655222428082e+02 5.290658411045736784e+02 5.290927780069524715e+02 5.290174205669976573e+02 5.290903731011944728e+02 5.290448210778641851e+02 5.290713801431276124e+02 5.290646507413217705e+02 5.290141390214100738e+02 5.290148515440315578e+02 5.290752170334154698e+02 5.290004206335586332e+02 5.290371848852533958e+02 5.290498560300718509e+02 5.290293364822468902e+02 5.290470233590090174e+02 5.290051105836197394e+02 5.290237287164520694e+02 5.290550333809723043e+02 5.290269400068981440e+02 5.290170385938905611e+02 5.290581499383819164e+02 5.290654361137587784e+02 5.290747375365205016e+02 5.290062762689066176e+02 5.290560631865594132e+02 5.290221215950591613e+02 5.290145277907784020e+02 5.290121845026441179e+02 5.290220449910929119e+02 5.290501869806678314e+02 5.290104100828801847e+02 5.290796602941412630e+02 5.290802482722344848e+02 5.290309841124452532e+02 2.903084909419355242e+01
2.805125576366486939e+01 5.280878847426777156e+02 5.280253727450030965e+02 5.280744583841160420e+02 5.280464506773937501e+02 5.280900326582031994e+02 5.280929581709501690e+02 5.280765499928600093e+02 5.280961807029869988e+02 5.280536300886952858e+02 5.280717482246761847e+02 5.280624315463664971e+02 5.280344920885243027e+02 5.280977651436700171e+02 5.280301749256716448e+02 5.280747274739691193e+02 5.280153637474527386e+02 5.280964035294272207e+02 5.280833061737857861e+02 5.280546626534570578e+02 5.280374673780271451e+02 5.280334625741511445e+02 5.280233005188338211e+02 5.280507425968216921e+02 5.280500675642549595e+02 5.280285656389149835e+02 5.280427937401573217e+02 5.280457419764215956e+02 5.280618399991632259e+02 5.280639463486360228e+02 5.280730512280017592e+02 5.280784130432587062e+02 5.280988185249211710e+02 5.280003333313497933e+02 5.280934776816748126e+02 5.280748289450017410e+02 5.280544456952617338e+02 5.280457136910022200e+02 5.280733702866809836e+02 5.280334428659382411e+02 5.280309919547563595e+02 5.280941655044108529e+02 5.280171825734406639e+02 5.280938125515897354e+02 5.280132888852456290e+02 5.280938636997675530e+02 5.280074030324475416e+02 5.280997439197591348e+02 5.280969283153699507e+02 5.280389077607788977e+02 5.280471960655637531e+02 5.280931219311104314e+02 5.280138766680940989e+02 5.280281410464980354e+02 5.280363689114431054e+02 5.280973614252401376e+02 5.280537025249428780e+02 5.280624794572041765e+02 5.280465200724576107e+02 5.280655596340183138e+02 5.280852572625515222e+02 5.280825344292921955e+02 5.280128027721199260e+02 5.280463274102546620e+02 5.280655498865419304e+02 5.280272403801249084e+02 5.280497012017527823e+02 5.280185333754368457e+02 5.280952512150302027e+02 5.280916765040816472e+02 5.280872151054162487e+02 5.280385547710819765e+02 5.280047935041292249e+02 5.280610133975369536e+02 5.280667376215476452e+02 5.280542561539299413e+02 5.280704187496144186e+02 5.280262467433291249e+02 5.280237944540629087e+02 5.280523506877909767e+02 5.280197509649387939e+02 5.280014449019034828e+02 5.280405598317429394e+02 5.280775282592916255e+02 5.280163560811419075e+02 5.280579642061744607e+02 5.280566424487967652e+02 5.280086802305567062e+02 5.280017270569300081e+02 5.280420176581260421e+02 5.280360523047220340e+02 5.280594953704040790e+02 5.280025562923385678e+02 5.280920227572946715e+02 5.280781117534065743e+02 5.280861391845614889e+02 5.280142818101338662e+02 5.280544368983893264e+02 5.280385016992407827e+02 2.803370123370926237e+01
2.708534095332704794e+01 5.270933448566362358e+02 5.270683807539197687e+02 5.270493293301316271e+02 5.270063950175094760e+02 5.270480751012952396e+02 5.270798592616572478e+02 5.270353016156083186e+02 5.270776622697080711e+02 5.270365332914795999e+02 5.270311532399771295e+02 5.270991075991142907e+02 5.270186033682073230e+02 5.270298138017953988e+02 5.270576525381050033e+02 5.270470408689167243e+02 5.270185346717609036e+02 5.270790397365794888e+02 5.270185342502711592e+02 5.270343916676488334e+02 5.270583281078683058e+02 5.270676242435444010e+02 5.270309694333326433e+02 5.270182260662792260e+02 5.270938727244820257e+02 5.270814914053745497e+02 5.270398399038566595e+02 5.270627995658130658e+02 5.270711470691802560e+02 5.270254592534250833e+02 5.270046226288508251e+02 5.270543465634698350e+02 5.270601999554481836e+02 5.270700282336174496e+02 5.270811163712902498e+02 5.270138166396253609e+02 5.270046756418827272e+02 5.270529671228470079e+02 5.270576531698299050e+02 5.270185480958280095e+02 5.270987750958962579e+02 5.270363451426010215e+02 5.270450867534013923e+02 5.270542930450161521e+02 5.270015092069447746e+02 5.270160312773201667e+02 5.270540012644065655e+02 5.270370465935243374e+02 5.270157143976865655e+02 5.270111757378355151e+02 5.270066774653892026e+02 5.270485395875442691e+02 5.270803169112404021e+02 5.270931861238876763e+02 5.270041484436703740e+02 5.270196319046524422e+02 5.270581081919975759e+02 5.270814166891252626e+02 5.270417362712075828e+02 5.270271828217278198e+02 5.270476006657617063e+02 5.270846972583439083e+02 5.270766523975190694e+02 5.270652169045928304e+02 5.270930614955660758e+02 5.270989783553886809e+02 5.270003937809505032e+02 5.270070339245556852e+02 5.270274631222540620e+02 5.270508093076224441e+02 5.270088997753380227e+02 5.270264399366965336e+02 5.270770215199463564e+02 5.270923452261322382e+02 5.270720248953383589e+02 5.270074043084736104e+02 5.270285399683139076e+02 5.270192407779420591e+02 5.270847745326277618e+02 5.270418206243602981e+02 5.270806615569997575e+02 5.270251592693613247e+02 5.270494613093164844e+02 5.270082423756804246e+02 5.270647739627804640e+02 5.270647324104176050e+02 5.270660533987899043e+02 5.270543397250008866e+02 5.270596832667919216e+02 5.270283326375295019e+02 5.270050828844488251e+02 5.270280263410297721e+02 5.270059872752850652e+02 5.270915847118020565e+02 5.270839032892364457e+02 5.270641925986512888e+02 5.270420595667105772e+02 5.270773716337988617e+02 5.270022898808214222e+02 2.709798229383936885e+01
2.605796984041005615e+01 5.260011570715948892e+02 5.260576230657825363e+02 5.260036762899526366e+02 5.260463689287158786e+02 5.260475360505407707e+02 5.260357504838723344e+02 5.260177301378956827e+02 5.260397987536920255e+02 5.260522244739134976e+02 5.260126209251293403e+02 5.260305270633252803e+02 5.260352827284539217e+02 5.260535078954897017e+02 5.260812354232098187e+02 5.260756125659663667e+02 5.260935789047427988e+02 5.260918144883581817e+02 5.260894396968427600e+02 5.260885926729430366e+02 5.260320218399712076e+02 5.260163518187047202e+02 5.260807756179012813e+02 5.260334569129100828e+02 5.260774003915453250e+02 5.260433994978149030e+02 5.260921763680557888e+02 5.260751758108926879e+02 5.260439580076662196e+02 5.260442400284767928e+02 5.260465877345529861e+02 5.260517874345929386e+02 5.260882165477062244e+02 5.260705385588051968e+02 5.260325607891444406e+02 5.260229437735027886e+02 5.260877626695977369e+02 5.260812600953615856e+02 5.260365676687805490e+02 5.260298789109891686e+02 5.260870264276416037e+02 5.260135911850097727e+02 5.260145127797256919e+02 5.260533886085016775e+02 5.260797458168800631e+02 5.260062730997411791e+02 5.260053062268035546e+02 5.260914597864077678e+02 5.260001685924290769e+02 5.260431658370002879e+02 5.260851370278928698e+02 5.260845689758813251e+02 5.260134780250483573e+02 5.260740779767487538e+02 5.260393284649563839e+02 5.260843015877311473e+02 5.260540040732157649e+02 5.260087129118247731e+02 5.260727086739663036e+02 5.260766436385932820e+02 5.260109023102613719e+02 5.260358623475995046e+02 5.260909603701022661e+02 5.260036992384183350e+02 5.260968307849096846e+02 5.260162739550019069e+02 5.260537663250128162e+02 5.260957229547112775e+02 5.260537284428412477e+02 5.260235734894713460e+02 5.260599008876585003e+02 5.260844121046613964e+02 5.260453469086195355e+02 5.260216006830930837e+02 5.260783130434632540e+02 5.260739379551332604e+02 5.260288291879155622e+02 5.260179052739481449e+02 5.260094051057139950e+02 5.260610339233030572e+02 5.260839885572310095e+02 5.260422315386239234e+02 5.260899283160009645e+02 5.260113904673438583e+02 5.260157538707474032e+02 5.260669228573560758e+02 5.260410432913153045e+02 5.260572718369722907e+02 5.260025843624691788e+02 5.260250302382029304e+02 5.260589222962250915e+02 5.260499495867184123e+02 5.260474573392768889e+02 5.260973357482312167e+02 5.260588873673551689e+02 5.260749388285653367e+02 5.260991857296742182e+02 5.260779432549448984e+02 5.260563952319947703e+02 2.600282939255055936e+01
2.509041221178575043e+01 5.250486434210853304e+02 5.250775474463117689e+02 5.250063721604769853e+02 5.250922903859204780e+02 5.250536743697778093e+02 5.250702529178508939e+02 5.250970908769998005e+02 5.250780802465267243e+02 5.250537028457920314e+02 5.250704694828356196e+02 5.250296052882256390e+02 5.250816798644151504e+02 5.250199685390412014e+02 5.250639232864826909e+02 5.250910631188125990e+02 5.250355781359534149e+02 5.250611920953622302e+02 5.250401490191758285e+02 5.250390164826421824e+02 5.250907336822857587e+02 5.250566167207647368e+02 5.250116622592030353e+02 5.250290270823935543e+02 5.250930170293185029e+02 5.250398537543496786e+02 5.250413802803125236e+02 5.250556719470039297e+02 5.250394613690704091e+02 5.250277174974119134e+02 5.250286694578420565e+02 5.250119897786926231e+02 5.250093664381986400e+02 5.250099730313420423e+02 5.250226183547028995e+02 5.250316881658568491e+02 5.250693288113664039e+02 5.250423355827298337e+02 5.250542408871538100e+02 5.250044927754597666e+02 5.250780646408184111e+02 5.250627438408860144e+02 5.250852272943068328e+02 5.250348502738104344e+02 5.250182604166697047e+02 5.250027190916590598e+02 5.250445238134523152e+02 5.250417017423596917e+02 5.250745569826494830e+02 5.250023674478784415e+02 5.250972457605428190e+02 5.250837593236493603e+02 5.250966983309197076e+02 5.250102673537747933e+02 5.250408636499983004e+02 5.250104302535454508e+02 5.250889769320584719e+02 5.250138145046793170e+02 5.250181962433953231e+02 5.250709711048137933e+02 5.250786578723073035e+02 5.250236736937279147e+02 5.250380892083413755e+02 5.250443194383359469e+02 5.250686087348004776e+02 5.250165247928352983e+02 5.250577327336554845e+02 5.250061714282524008e+02 5.250942425407520204e+02 5.250459896454711952e+02 5.250133436148968258e+02 5.250225145793652928e+02 5.250356782353435392e+02 5.250179336138509143e+02 5.250903301445539455e+02 5.250667046315016933e+02 5.250089998927388706e+02 5.250365602458426793e+02 5.250823385268380434e+02 5.250163234568457256e+02 5.250939695630023607e+02 5.250518260527196617e+02 5.250330274061491309e+02 5.250963181672112796e+02 5.250077588463601614e+02 5.250415449376131392e+02 5.250833298026466309e+02 5.250027596833396046e+02 5.250003512378234518e+02 5.250847213209133315e+02 5.250145839559475007e+02 5.250840798643496328e+02 5.250387310364794757e+02 5.250901400207052347e+02 5.250124148593357631e+02 5.250350980427268723e+02 5.250340477706336060e+02 5.250954092297895386e+02 5.250501685604743898e+02 2.504614186559925670e+01
2.408029406028710184e+01 5.240134991786820819e+02 5.240724820987860539e+02 5.240881364584281528e+02 5.240944830554791452e+02 5.240564732367336092e+02 5.240940877361499588e+02 5.240364331825326190e+02 5.240380786601371028e+02 5.240177143012367651e+02 5.240516941549489047e+02 5.240106815855388049e+02 5.240513345316257983e+02 5.240943755811412075e+02 5.240729935856547854e+02 5.240349225799930082e+02 5.240583646657331656e+02 5.240333952527525980e+02 5.240017308603564743e+02 5.240356480003079014e+02 5.240205186271650746e+02 5.240995350130906445e+02 5.240467944622182586e+02 5.240724336315064420e+02 5.240150374836804303e+02 5.240580358539115196e+02 5.240577333838081131e+02 5.240399825330407566e+02 5.240826317752624846e+02 5.240142808647597121e+02 5.240148430248465274e+02 5.240985234483871409e+02 5.240394363830716884e+02 5.240087112846035780e+02 5.240488231054220023e+02 5.240519933732580284e+02 5.240169130590779787e+02 5.240945368686607253e+02 5.240370738653183480e+02 5.240195922742177572e+02 5.240665027728113046e+02 5.240999574646251631e+02 5.240068891991564897e+02 5.240680133463666834e+02 5.240591276068311117e+02 5.240869391198343692e+02 5.240990094722593540e+02 5.240301203029538328e+02 5.240307436230718849e+02 5.240110755230004997e+02 5.240820653255659636e+02 5.240472661317983238e+02 5.240753202698291489e+02 5.240598374829826298e+02 5.240667893042669903e+02 5.240877699313447238e+02 5.240172289159644379e+02 5.240529543517809543e+02 5.240387192176604003e+02 5.240495483574451328e+02 5.240715602706093250e+02 5.240060740411601046e+02 5.240165199714455184e+02 5.240216037431351879e+02 5.240689933800039171e+02 5.240325938412058804e+02 5.240971130228867878e+02 5.240836135346581841e+02 5.240838343208389460e+02 5.240313993110378306e+02 5.240076718011729326e+02 5.240290473681869798e+02 5.240302475783050795e+02 5.240242598800825817e+02 5.240412508962426728e+02 5.240207365067824412e+02 5.240773308097177505e+02 5.240293919417638335e+02 5.240989666889220189e+02 5.240805246373175805e+02 5.240387514282147094e+02 5.240236781881925481e+02 5.240787146622953969e+02 5.240308062236765636e+02 5.240393660358099623e+02 5.240037022918761522e+02 5.240991034628083298e+02 5.240575238692280209e+02 5.240941615109892382e+02 5.240839885795861619e+02 5.240745488244996295e+02 5.240059299889019258e+02 5.240570496512923455e+02 5.240211179830081392e+02 5.240277788558315706e+02 5.240757023630784488e+02 5.240315829273114332e+02 5.240967798180482760e+02 5.240869725593316844e+02 2.404351556056208139e+01
2.304037252567882277e+01 5.230483206223628940e+02 5.230846557056387383e+02 5.230320208217701747e+02 5.230500271241828614e+02 5.230760323437125408e+02 5.230796480258701422e+02 5.230515692452762551e+02 5.230960143380419822e+02 5.230154467646508465e+02 5.230593994494414574e+02 5.230511284611983456e+02 5.230196795189017394e+02 5.230328073155782249e+02 5.230863071939890006e+02 5.230794847852097291e+02 5.230876037011345261e+02 5.230968710207893082e+02 5.230369757230340610e+02 5.230317551646752463e+02 5.230340287075629249e+02 5.230362060700357461e+02 5.230222048521875422e+02 5.230193177231805066e+02 5.230066380790759695e+02 5.230738630635772779e+02 5.230533222203785044e+02 5.230168210091717356e+02 5.230415906993259796e+02 5.230749839050306491e+02 5.230789034143924709e+02 5.230453980091720041e+02 5.230059620647746215e+02 5.230370959831923301e+02 5.230805541136512602e+02 5.230584760747358359e+02 5.230032496733452945e+02 5.230431563369515970e+02 5.230948985652764804e+02 5.230689746909423548e+02 5.230318116882020831e+02 5.230557506525775580e+02 5.230530816859128436e+02 5.230234721494640553e+02 5.230561749313786777e+02 5.230337792785384181e+02 5.230143096913403724e+02 5.230447776187420459e+02 5.230481762592778523e+02 5.230526029553238914e+02 5.230019191710554196e+02 5.230586338774593287e+02 5.230905118055175080e+02 5.230325248410186987e+02 5.230264411579673833e+02 5.230458786209254640e+02 5.230656764592539503e+02 5.230731740419031439e+02 5.230036614375513864e+02 5.230973035495745762e+02 5.230657456672319086e+02 5.230267159100699246e+02 5.230382482652820499e+02 5.230427872419127198e+02 5.230521591642688009e+02 5.230236845419980227e+02 5.230040202121508628e+02 5.230567854312066629e+02 5.230421266052341025e+02 5.230457898600376438e+02 5.230742184449892420e+02 5.230201136632582575e+02 5.230228615171330375e+02 5.230363572987555472e+02 5.230244851049552608e+02 5.230374944424311252e+02 5.230829940623594894e+02 5.230013163724078140e+02 5.230364646396728858e+02 5.230951251964385165e+02 5.230300221781481014e+02 5.230131456237099883e+02 5.230589657660192415e+02 5.230727925060584766e+02 5.230994342615974801e+02 5.230180878501392954e+02 5.230098402778132822e+02 5.230016153348678927e+02 5.230132820516442962e+02 5.230110339284273095e+02 5.230681796512150186e+02 5.230752370763487988e+02 5.230999981163297434e+02 5.230337448485272489e+02 5.230961294712000154e+02 5.230188414042117984e+02 5.230081123046084031e+02 5.230803768087939716e+02 5.230081624519626757e+02 2.303536628060114921e+01
2.208575608572762050e+01 5.220482999320362296e+02 5.220214498662189726e+02 5.220029211329788268e+02 5.220198569916890392e+02 5.220753467627112059e+02 5.220933058487610197e+02 5.220831477046414193e+02 5.220635826618320152e+02 5.220043959188775489e+02 5.220561722614631890e+02 5.220507048553555478e+02 5.220731573903822209e+02 5.220800173579690409e+02 5.220540898409599322e+02 5.220435741931740949e+02 5.220468855171538962e+02 5.220526637159650818e+02 5.220398461285569738e+02 5.220991000235180763e+02 5.220952341079346297e+02 5.220941968102583814e+02 5.220497492232528884e+02 5.220962652821668826e+02 5.220177296635403081e+02 5.220162817787859240e+02 5.220772348009088546e+02 5.220036616165491523e+02 5.220421367851763534e+02 5.220005263246155209e+02 5.220679963645053476e+02 5.220491452717532184e+02 5.220291652724928326e+02 5.220846079395580546e+02 5.220080601749045854e+02 5.220080028649708765e+02 5.220514141236418482e+02 5.220317278604120474e+02 5.220178614236079966e+02 5.220346562743889081e+02 5.220958046058722175e+02 5.220002031545932368e+02 5.220875806842570910e+02 5.220258887036433180e+02 5.220954043775585660e+02 5.220125848831894473e+02 5.220535976538620844e+02 5.220286947092712353e+02 5.220332248537371242e+02 5.220628836469377347e+02 5.220784851019777761e+02 5.220474865078377888e+02 5.220645039245558792e+02 5.220436778588577909e+02 5.220494583310670578e+02 5.220952277837776592e+02 5.220602973466289995e+02 5.220415725590735292e+02 5.220216713353660225e+02 5.220192552297114617e+02 5.220579933755134334e+02 5.220555862483605551e+02 5.220134792868409477e+02 5.220627554330003477e+02 5.220791159975856317e+02 5.220193947843545175e+02 5.220020462457788426e+02 5.220721463430018048e+02 5.220376553601485057e+02 5.220920199812842384e+02 5.220439346972366366e+02 5.220401733022764574e+02 5.220062506262974011e+02 5.220290023393849879e+02 5.220345899959500002e+02 5.220376739903791758e+02 5.220664773663414735e+02 5.220613728444774324e+02 5.220629220084036888e+02 5.220949553596137775e+02 5.220524696054018250e+02 5.220297654431021783e+02 5.220408518367966053e+02 5.220319813586929740e+02 5.220778749361443261e+02 5.220700337699660167e+02 5.220971126526322905e+02 5.220358120836788203e+02 5.220013957854000637e+02 5.220327283457213525e+02 5.220764389457168591e+02 5.220572387096835882e+02 5.220007318447410398e+02 5.220674905949892946e+02 5.220656673295161454e+02 5.220257606948671310e+02 5.220285980932002303e+02 5.220639501202620067e+02 5.220109806806775623e+02 2.206257252417314874e+01
2.103010560449763844e+01 5.210950067415723197e+02 5.210532894578412879e+02 5.210796669619658132e+02 5.210652695969016577e+02 5.210670833296048841e+02 5.210604002300594857e+02 5.210692499582111168e+02 5.210853724101434636e+02 5.210916512746667877e+02 5.210958747836868952e+02 5.210011114145040665e+02 5.210149479959850396e+02 5.210535728881303612e+02 5.210375651733573932e+02 5.210278148404701142e+02 5.210715803016252039e+02 5.210206314958803659e+02 5.210652045891545185e+02 5.210755134235904507e+02 5.210761864288953120e+02 5.210602593838862049e+02 5.210923615893805163e+02 5.210121057748214071e+02 5.210157049324132004e+02 5.210627053931008277e+02 5.210291953121824235e+02 5.210835819030820630e+02 5.210488079464250859e+02 5.210774465765663308e+02 5.210000790676441511e+02 5.210483882421807493e+02 5.210779532641473679e+02 5.210658754042651708e+02 5.210635059302770742e+02 5.210314092318593566e+02 5.210536110735005195e+02 5.210748409105990504e+02 5.210404216896318985e+02 5.210750802211285873e+02 5.210349677047818204e+02 5.210154522345136456e+02 5.210383126080577085e+02 5.210141017926083578e+02 5.210208910793847963e+02 5.210463200523859086e+02 5.210781001327169406e+02 5.210103189322557000e+02 5.210508288612732031e+02 5.210893698486496532e+02 5.210325152025378657e+02 5.210067745138691180e+02 5.210223006809227400e+02 5.210689434267092111e+02 5.210365919911852188e+02 5.210231100006324141e+02 5.210403931825688915e+02 5.210177062583661609e+02 5.210293262803600101e+02 5.210357602268543360e+02 5.210462150647392718e+02 5.210340517127109479e+02 5.210878275025931998e+02 5.210596117181079308e+02 5.210261273434144869e+02 5.210202954133213780e+02 5.210454603766679611e+02 5.210859291588556061e+02 5.210792240650145004e+02 5.210157984692300488e+02 5.210577458707253982e+02 5.210954787526690097e+02 5.210962175134465042e+02 5.210305525397661768e+02 5.210725382718668470e+02 5.210516710523709207e+02 5.210797548881110970e+02 5.210254863189517209e+02 5.210560387344422679e+02 5.210550132782478840e+02 5.210560567476341021e+02 5.210752773747109359e+02 5.210216505154975266e+02 5.210627249257380527e+02 5.210993987886527066e+02 5.210904882894847105e+02 5.210654693080967945e+02 5.210175414732025274e+02 5.210643010137014244e+02 5.210698639076789505e+02 5.210523819649929465e+02 5.210226283701532566e+02 5.210981210138845654e+02 5.210511538070310280e+02 5.210894246673142334e+02 5.210749745534621979e+02 5.210648684767755867e+02 5.210248489966344323e+02 5.210468518386320511e+02 2.106863644506678312e+01
2.001140670907884811e+01 5.200904859722501214e+02 5.200006320651918941e+02 5.200955398445189530e+02 5.200254160844277749e+02 5.200254246480104712e+02 5.200933417395946208e+02 5.200117727436295354e+02 5.200435394501581641e+02 5.200596970479762149e+02 5.200315792211282542e+02 5.200040504403415298e+02 5.200383412318697083e+02 5.200827691645937421e+02 5.200657505951871826e+02 5.200812011570943696e+02 5.200331087758162312e+02 5.200571507637220066e+02 5.200868493366542680e+02 5.200446488410142365e+02 5.200151784111651523e+02 5.200575677467680862e+02 5.200845928301645245e+02 5.200999718539944752e+02 5.200132567071448193e+02 5.200742879548515702e+02 5.200176636474653833e+02 5.200455147190987191e+02 5.200653688336137748e+02 5.200151881527684736e+02 5.200391057857157193e+02 5.200952828776739807e+02 5.200114728725638997e+02 5.200626520772543699e+02 5.200226200592279611e+02 5.200171374931725268e+02 5.200046234932555080e+02 5.200989022085370834e+02 5.200710160612907202e+02 5.200185708169304917e+02 5.200158379242822093e+02 5.200294477683037258e+02 5.200060983486911255e+02 5.200657217179135614e+02 5.200336118909245897e+02 5.200832349181688414e+02 5.200518660247990965e+02 5.200571045259226821e+02 5.200171329653151133e+02 5.200381792666644287e+02 5.200353287244629428e+02 5.200856108267862510e+02 5.200155299492574841e+02 5.200181397725102670e+02 5.200877492006244438e+02 5.200902448838622831e+02 5.200936163620028765e+02 5.200248649807859920e+02 5.200368340454892859e+02 5.200525074649946191e+02 5.200684395162190867e+02 5.200961133025792833e+02 5.200635311054038539e+02 5.200015410725552556e+02 5.200089448692642691e+02 5.200076634200751187e+02 5.200874213193887954e+02 5.200140476125255873e+02 5.200456731453183465e+02 5.200952781300231891e+02 5.200484683925255922e+02 5.200079775321800071e+02 5.200975986054419309e+02 5.200959145326999078e+02 5.200052813826899865e+02 5.200214790483450997e+02 5.200868072738466026e+02 5.200014897391999966e+02 5.200600263964721535e+02 5.200278647045757907e+02 5.200016710155616693e+02 5.200726263799980416e+02 5.200775779346146237e+02 5.200432874740951092e+02 5.200161999163753990e+02 5.200736717571027157e+02 5.200574563345559227e+02 5.200220712974050912e+02 5.200602370741817140e+02 5.200553521192094877e+02 5.200519169550670995e+02 5.200695076809390685e+02 5.200152413648869469e+02 5.200829011331928768e+02 5.200768735985939202e+02 5.200904666235853711e+02 5.200900532023010783e+02 5.200464566184850810e+02 5.200495674495959975e+02 2.002416904750858961e+01
1.904940147565392294e+01 5.190465528485190134e+02 5.190834782413119228e+02 5.190447090080474482e+02 5.190861104396994961e+02 5.190596835855383233e+02 5.190396865074038715e+02 5.190592921764496168e+02 5.190977624977075493e+02 5.190439072734614001e+02 5.190522622792586844e+02 5.190139888492468572e+02 5.190444299588849617e+02 5.190960375915800569e+02 5.190879622197459184e+02 5.190785420867432549e+02 5.190393054364445788e+02 5.190336900128178286e+02 5.190491885015280786e+02 5.190899925753677735e+02 5.190547741173024860e+02 5.190707595066133990e+02 5.190578649436632759e+02 5.190144923628535025e+02 5.190782648636284193e+02 5.190278906581914953e+02 5.190779809865654215e+02 5.190132004239015941e+02 5.190933621118289238e+02 5.190065144681627771e+02 5.190832151267028394e+02 5.190970123283370867e+02 5.190103544839832921e+02 5.190253341952918618e+02 5.190656004828888399e+02 5.190726583946056962e+02 5.190941644481112007e+02 5.190802702977701983e+02 5.190013691849246698e+02 5.190190715730324200e+02 5.190983799059287094e+02 5.190146269556222478e+02 5.190109627817653291e+02 5.190479505054755691e+02 5.190256700742124849e+02 5.190326579338270676e+02 5.190901443133591329e+02 5.190024348933463898e+02 5.190264850437578161e+02 5.190247411796883625e+02 5.190184358473309203e+02 5.190380864837742365e+02 5.190478360864743763e+02 5.190344351638593707e+02 5.190002041915591917e+02 5.190449781913187053e+02 5.190007295323017615e+02 5.190761040040475791e+02 5.190211608154662599e+02 5.190397710484331810e+02 5.190115396305568538e+02 5.190882058247767645e+02 5.190535929354215341e+02 5.190978760286621991e+02 5.190109461009881215e+02 5.190287501178696630e+02 5.190742241861570392e+02 5.190258461006145581e+02 5.190704733708865888e+02 5.190386623525062078e+02 5.190376813841577359e+02 5.190285049007669613e+02 5.190814148390666105e+02 5.190960177002890532e+02 5.190223722244010105e+02 5.190699980260274060e+02 5.190066776472780248e+02 5.190095321594238840e+02 5.190812652742043838e+02 5.190562068232202364e+02 5.190873813037384252e+02 5.190851097651645887e+02 5.190771229070334130e+02 5.190196317740155791e+02 5.190416632526123522e+02 5.190846106060728289e+02 5.190096028315499552e+02 5.190331347474003678e+02 5.190820950373298501e+02 5.190377876597716522e+02 5.190874005310151915e+02 5.190026634449595804e+02 5.190452562378588937e+02 5.190234635655382363e+02 5.190760173447387160e+02 5.190330073860679931e+02 5.190602209978136443e+02 5.190211137209640810e+02 5.190652778323084249e+02 1.905364300592892590e+01
1.803101302940289941e+01 5.180896406728642205e+02 5.180754901908268266e+02 5.180768732627216195e+02 5.180311160656067386e+02 5.180465767518992379e+02 5.180623197492484451e+02 5.180537712956114547e+02 5.180989385295995362e+02 5.180151454541522753e+02 5.180340899583682130e+02 5.180883055960069896e+02 5.180686975135705552e+02 5.180794285013130320e+02 5.180702110555474746e+02 5.180163936511712564e+02 5.180663234178534822e+02 5.180581781995207393e+02 5.180661367332538703e+02 5.180144008806800002e+02 5.180731168870427155e+02 5.180268110227564193e+02 5.180123996922991410e+02 5.180065044411953750e+02 5.180814458263930646e+02 5.180758378026736182e+02 5.180818833613030847e+02 5.180068463946411157e+02 5.180867141778838914e+02 5.180592616833217789e+02 5.180262763421241061e+02 5.180062152036086900e+02 5.180648425391489127e+02 5.180969640210489615e+02 5.180175791961278264e+02 5.180271044292571787e+02 5.180438036006630682e+02 5.180965823393565870e+02 5.180490380972028106e+02 5.180512790097490097e+02 5.180464586666198556e+02 5.180346908873167422e+02 5.180991443666249552e+02 5.180827701465580049e+02 5.180257713777507433e+02 5.180175579663344934e+02 5.180491655953426289e+02 5.180795087418742924e+02 5.180963112738639893e+02 5.180108030542689903e+02 5.180093463821274327e+02 5.180020072959815707e+02 5.180713705527030015e+02 5.180537941817761975e+02 5.180888399623587475e+02 5.180333583933714863e+02 5.180945550996019620e+02 5.180197775463418566e+02 5.180532696610823677e+02 5.180239966557235221e+02 5.180807611799139067e+02 5.180912096620984357e+02 5.180681396934779741e+02 5.180577290397777688e+02 5.180168324446917723e+02 5.180700283859748652e+02 5.180307613836372411e+02 5.180619138489945499e+02 5.180342548971067345e+02 5.180085248824952942e+02 5.180681574843982844e+02 5.180394058301247924e+02 5.180544244469001569e+02 5.180743097426908434e+02 5.180127088851572807e+02 5.180844592124943802e+02 5.180940989913641488e+02 5.180247941323261784e+02 5.180517308926692976e+02 5.180991278971265501e+02 5.180056761056282539e+02 5.180980936722843353e+02 5.180518676772205708e+02 5.180013720507685093e+02 5.180595053605868543e+02 5.180259695986271709e+02 5.180834132814291024e+02 5.180443912920724188e+02 5.180836924897378140e+02 5.180419367039183953e+02 5.180710618797181723e+02 5.180700635188263732e+02 5.180907204977933134e+02 5.180868539927993197e+02 5.180420444345392070e+02 5.180280079905089679e+02 5.180194480596171616e+02 5.180578389220471536e+02 5.180898678712331957e+02 1.802257928919130592e+01
