ncols 84
nrows 44
xllcorner 503844.966494
yllcorner 4468302.73927
cellsize 100.0
-9.999000000000000000e+03 -9.999000000000000000e+03 -9.999000000000000000e+03 9.698931098769601533e+01 9.261646009900505305e+01 9.014550194230088209e+01 8.689639973871976508e+01 8.436393463322265518e+01 8.869797566135426337e+01 8.570374430337615479e+01 8.029858769964302212e+01 7.481001013280314282e+01 7.705306864180593607e+01 7.733773328800214131e+01 7.650477100014168741e+01 7.769038220499730585e+01 7.537943896517508335e+01 6.981216808035193822e+01 6.457894901877156713e+01 5.903851216721899675e+01 5.205511532994949420e+01 4.464928787795410159e+01 5.018669013115635380e+01 5.338865743099390215e+01 5.200692108802474678e+01 5.305448193096300002e+01 4.684935072608877960e+01 4.023597222754273872e+01 3.550865678300601758e+01 3.938762300425772622e+01 3.887498565077277135e+01 3.956777997558602067e+01 4.139860648965562717e+01 4.313746135752614919e+01 4.174803748969724637e+01 4.351823154492482360e+01 4.665644072563667066e+01 4.623666936885847178e+01 4.773314949081991188e+01 4.577756368229135120e+01 4.249798164701842751e+01 4.306905341316932123e+01 4.452503186718615069e+01 4.549005311455176326e+01 4.716026976507080093e+01 4.712159436816351388e+01 4.901173638472302940e+01 5.261991844572446553e+01 5.426597811282436368e+01 5.563874837502299187e+01 5.910714007213471177e+01 6.337972905012405533e+01 6.652044429867467557e+01 6.872787335716020607e+01 6.843762694385506506e+01 7.626600759302812094e+01 7.882713443857073798e+01 8.172608211121674060e+01 8.603786235009604866e+01 9.063135438857642612e+01 9.564513903354882984e+01 1.000521613929484204e+02 1.059309152122160640e+02 1.113696519578558792e+02 1.123261633017972656e+02 1.159214785077581809e+02 1.200284763789600078e+02 1.229746266907132366e+02 1.314708568875696812e+02 1.355032016324751964e+02 1.287144709400304237e+02 1.253384796482744434e+02 1.245725149346242802e+02 1.203939368791370441e+02 1.194541955436750982e+02 1.215402032171996183e+02 1.209900276243499917e+02 1.218976933230105004e+02 1.228118725925264414e+02 1.248181318306489231e+02 -9.999000000000000000e+03 -9.999000000000000000e+03 -9.999000000000000000e+03 -9.999000000000000000e+03
-9.999000000000000000e+03 -9.999000000000000000e+03 -9.999000000000000000e+03 9.640824533001678276e+01 9.504605905785049913e+01 9.168892925870027000e+01 8.492254940066297308e+01 8.171327346995482799e+01 8.529027045209912217e+01 8.141310318788350742e+01 7.524423750136659805e+01 6.793115312053821242e+01 7.306079208842335504e+01 7.133545529664819185e+01 7.136541371945264700e+01 7.192348124196533377e+01 7.256966691833825678e+01 7.288325330925329126e+01 7.078203092794772999e+01 6.410637603570680199e+01 6.488725497926986918e+01 5.963466786575244782e+01 4.145633320352760620e+01 4.322927984548372393e+01 4.903396100966291726e+01 4.821333103030028866e+01 4.508731359827892504e+01 3.424840434282472046e+01 3.528870673310219530e+01 3.655533753066903557e+01 3.666108272219051400e+01 3.597275448479118154e+01 3.685658837204087490e+01 3.715499479149763573e+01 3.896418474908056595e+01 3.970491902079614022e+01 4.477862873758063955e+01 4.049761976852784073e+01 4.106686921975685323e+01 4.159014696577713011e+01 4.246712416308647420e+01 4.399739870179217149e+01 4.483787549865215283e+01 4.537032595114927602e+01 4.701661385783507541e+01 4.695995735616677536e+01 5.295590755015080475e+01 5.330020805918128701e+01 5.856126091923001553e+01 6.298348140179822963e+01 6.609051238816238083e+01 7.057218156300316991e+01 7.400860989516040434e+01 7.699529422664055289e+01 7.802802626192287505e+01 8.232033250452045081e+01 8.669516508880688832e+01 8.946758399197115352e+01 9.198952518416930957e+01 9.640879185874250368e+01 1.010036833738563615e+02 1.056403393785255389e+02 1.101948024781989801e+02 1.119619698814643556e+02 1.109148047388999458e+02 1.100372006478603453e+02 1.162158045688592978e+02 1.234395518958787790e+02 1.375925707560800220e+02 1.349790868214265913e+02 1.239899783432030773e+02 1.187089520421168203e+02 1.200939173484055118e+02 1.164154960325558363e+02 1.157258160949473336e+02 1.168540463838320846e+02 1.156502458044148938e+02 1.163118531755965677e+02 1.186550077617774264e+02 1.226063534610777879e+02 1.251124982599216793e+02 -9.999000000000000000e+03 -9.999000000000000000e+03 -9.999000000000000000e+03
-9.999000000000000000e+03 -9.999000000000000000e+03 -9.999000000000000000e+03 -9.999000000000000000e+03 9.111107098648236047e+01 8.692150439038533705e+01 8.159223592405950853e+01 7.776028464378232741e+01 8.061925268042753601e+01 7.655597572194764666e+01 6.922397303394799906e+01 6.176126408958431568e+01 7.012087029210320566e+01 6.539572557677426801e+01 6.325413878632430453e+01 6.535867451907272141e+01 7.272855650680699569e+01 7.510892176483872618e+01 7.247603257766022011e+01 7.120526785624535648e+01 6.870105928965618602e+01 6.366713994168284074e+01 5.354037346813063891e+01 3.866455896167615691e+01 4.466845534314283839e+01 3.966150246132562529e+01 3.731012819046701878e+01 3.506099040801771594e+01 3.739759083058158495e+01 4.143175751156826436e+01 4.382646059908908853e+01 4.461079497669836513e+01 4.599782199665525440e+01 4.033305308794400190e+01 4.835445664508787189e+01 4.187617466978733916e+01 4.067679554229245298e+01 4.138648838421848097e+01 4.456687544636846354e+01 4.546369378420328644e+01 4.833126087573202057e+01 5.003824004943465553e+01 5.052894140675594059e+01 5.056373554754848954e+01 4.623487833343141062e+01 4.652253564684238540e+01 5.519833101284710608e+01 6.128439218765459628e+01 6.560995978053504984e+01 7.093368670496451500e+01 7.473309799690841260e+01 7.767957332552191474e+01 8.092742951706082977e+01 8.433859316945762430e+01 8.475636991746638671e+01 8.464140505771668188e+01 9.064986583339701554e+01 9.453676140781423953e+01 9.816573409905115000e+01 1.010282467636820201e+02 1.058205216036874958e+02 1.087125269651069459e+02 1.102888105420430094e+02 1.106459251190168374e+02 1.082884163082737672e+02 1.047417216150126649e+02 1.115359227319923008e+02 1.155242352354167963e+02 1.354758766767657789e+02 1.349845857353938925e+02 1.244650909698397925e+02 1.154167614150759533e+02 1.129252878955755648e+02 1.142645063591279637e+02 1.138607235880495665e+02 1.158071448239566479e+02 1.124218411128261437e+02 1.156988463046035065e+02 1.205404051003688579e+02 1.228282233827081598e+02 1.242733730304243807e+02 -9.999000000000000000e+03 -9.999000000000000000e+03 -9.999000000000000000e+03
-9.999000000000000000e+03 -9.999000000000000000e+03 -9.999000000000000000e+03 -9.999000000000000000e+03 8.557184366328895919e+01 8.390544619289383377e+01 7.861138687911423517e+01 7.169648310280287262e+01 7.454577795405576524e+01 6.970923539495625221e+01 6.552629657163849686e+01 5.807511939001444290e+01 6.611149862379113529e+01 6.050473595267138194e+01 5.904714304073399234e+01 5.790911137274208897e+01 7.259975496012171448e+01 7.420459897655679526e+01 7.483916417567527901e+01 7.416944610971390262e+01 7.044690882987502789e+01 6.480734089166027445e+01 5.728504895071552028e+01 4.045792081953780439e+01 3.950610797047671952e+01 3.754232408237524510e+01 3.400651674780148426e+01 3.972088977292458623e+01 4.505219760580310151e+01 5.005992809393101339e+01 5.220866294852113754e+01 4.752802771324552822e+01 5.042198965545107825e+01 5.102228143415979389e+01 4.801738841475443564e+01 4.557988263903069992e+01 5.006816689655581598e+01 4.751591011699116507e+01 4.939060088592384545e+01 5.196100474812289605e+01 5.178406494860188047e+01 5.675622089352459199e+01 5.882566702186083063e+01 6.082520967376230203e+01 6.043683389407402018e+01 4.855611106055864923e+01 4.786156375334373791e+01 6.734548574535860155e+01 7.340191367152138469e+01 7.871033638588937720e+01 8.117745805627042444e+01 8.393191867278709140e+01 8.751443422917608927e+01 9.017572084004272881e+01 8.983156929117963330e+01 9.038368715950765875e+01 9.434102569951208750e+01 9.828228373184565214e+01 1.014953486723407821e+02 1.035114725397686612e+02 1.059399591432887462e+02 1.071631107877467173e+02 1.069595848414088124e+02 1.057523870699873925e+02 1.022883027696074976e+02 1.007280242936818127e+02 1.013336139459577367e+02 1.081522688811371609e+02 1.182866349957270415e+02 1.198056746348915595e+02 1.154265436746355817e+02 1.118696773405631006e+02 1.101657646284499634e+02 1.126217788634696433e+02 1.129853253606430599e+02 1.146997502711234205e+02 1.108729661751273028e+02 1.167754551799841494e+02 1.217169556781954043e+02 1.241252710893803766e+02 1.256923995653033046e+02 -9.999000000000000000e+03 -9.999000000000000000e+03 -9.999000000000000000e+03
-9.999000000000000000e+03 -9.999000000000000000e+03 -9.999000000000000000e+03 -9.999000000000000000e+03 -9.999000000000000000e+03 8.304768938923834298e+01 8.034746968503110054e+01 7.328991947029597043e+01 6.359889672788180803e+01 6.215357809771987974e+01 6.114468165946797740e+01 5.270090530106517690e+01 5.928964490798959730e+01 5.458280036382869582e+01 5.303497705505084525e+01 6.662292739191752844e+01 7.156296661629744449e+01 7.497329977376175236e+01 7.502635211105318547e+01 7.346833597457586507e+01 7.038352997712271986e+01 6.647639968550828371e+01 6.187442917900843042e+01 5.283219181681968735e+01 4.140827521207661732e+01 3.333491954223512010e+01 4.131127889705794587e+01 4.932925904805975392e+01 5.379965462231121620e+01 5.803400880790668737e+01 5.819253435017411391e+01 5.488183653799620743e+01 5.074178301944967018e+01 4.984556235639392696e+01 4.997828306098001860e+01 4.800404475857123288e+01 5.282824057158261155e+01 5.470023304354991467e+01 5.137583888961396639e+01 5.885950759589368886e+01 6.187723474871090446e+01 6.546516801723323908e+01 6.812799768995733984e+01 6.833292913455815665e+01 6.721182310302839369e+01 5.906783563056244191e+01 5.086847168034803701e+01 7.409543511810066718e+01 7.954272677127877955e+01 8.288748657508833162e+01 8.520752525361685059e+01 8.697107005041824834e+01 9.002685694606704203e+01 9.308059349458028464e+01 9.456100565858682216e+01 9.620216919335121020e+01 9.903254650370760714e+01 9.986058258120955600e+01 9.966478262982315073e+01 9.692174821562011289e+01 1.000108294979076220e+02 9.823405297277362536e+01 9.718714145568667107e+01 9.365679733529201201e+01 9.345931012602808607e+01 8.934725372174371216e+01 9.427169308921673974e+01 9.991722677201512681e+01 1.034141581554621752e+02 1.064941038836474263e+02 1.064497186580275780e+02 1.072435243630476123e+02 1.080615092623766600e+02 1.097010659345958601e+02 1.122595630761513661e+02 1.152018566914870519e+02 1.097432880786567324e+02 1.139095759926865554e+02 1.162838490243837271e+02 1.254590050673869399e+02 1.273762391967362504e+02 -9.999000000000000000e+03 -9.999000000000000000e+03 -9.999000000000000000e+03
-9.999000000000000000e+03 -9.999000000000000000e+03 -9.999000000000000000e+03 -9.999000000000000000e+03 -9.999000000000000000e+03 8.422843935066160270e+01 8.331330851914333380e+01 7.515241574509691702e+01 6.713774466253508422e+01 5.535135407014521292e+01 5.215135351069807257e+01 4.731799325483498819e+01 5.188116147847383530e+01 4.439079718765625415e+01 5.778731171538350253e+01 6.260226775170014690e+01 7.161238441346874595e+01 7.390179887032154227e+01 7.127660535784801255e+01 6.410914595368338098e+01 6.122216968348721622e+01 6.596235447394319351e+01 6.290685747544466722e+01 5.722324834115610059e+01 3.711885334688235361e+01 3.694228216491610084e+01 5.182699609500647853e+01 6.003894097996118973e+01 6.358375605932501884e+01 6.482743633381218729e+01 5.815642795846940771e+01 6.146060535643469791e+01 5.355885777795788272e+01 5.929350706287824835e+01 5.863569114852646180e+01 5.946709233212010304e+01 5.923458360169617265e+01 6.275309774941627694e+01 6.469354202967544154e+01 6.699853108287199177e+01 7.042610843280206723e+01 7.327742514506714144e+01 7.519670030466760124e+01 7.492945278762607586e+01 7.127186993712351182e+01 5.150387258059112838e+01 6.079391175697253402e+01 7.661002022585503823e+01 7.790919459765795807e+01 7.769385306002202185e+01 8.172699077112108057e+01 8.617902140784389076e+01 9.087375199577873275e+01 9.530488076673350406e+01 9.761976608291432456e+01 9.707967672222923738e+01 9.614636623540235405e+01 9.385587815791451760e+01 9.013925412729199138e+01 8.605591606328059129e+01 8.503347221077038398e+01 8.421642247042255747e+01 8.195447052866344961e+01 8.703648256933813343e+01 9.007495653956945603e+01 9.952267609153307149e+01 1.058778336678990399e+02 1.085003172526453739e+02 1.126326867127332889e+02 1.123283728251022637e+02 1.104963480905111766e+02 1.086861495915219962e+02 1.079322577216550059e+02 1.080229706153417197e+02 1.103924851669051321e+02 1.095737420533832562e+02 1.092361432944138642e+02 1.107238081931881482e+02 1.138776604113351709e+02 1.203020682586137724e+02 1.237043975353193730e+02 1.262865446074577278e+02 -9.999000000000000000e+03 -9.999000000000000000e+03
-9.999000000000000000e+03 -9.999000000000000000e+03 -9.999000000000000000e+03 -9.999000000000000000e+03 -9.999000000000000000e+03 8.442317511573406819e+01 8.213608349988312796e+01 7.676435138081411935e+01 7.014192981223540357e+01 6.434195494101102497e+01 5.425135020260557184e+01 4.602296742429308551e+01 4.254928362723160973e+01 4.263215944826234249e+01 5.361692929485020187e+01 6.553152156266477846e+01 7.167161059329404793e+01 7.351757751917281780e+01 7.019873614211448398e+01 6.301773355237416041e+01 5.520104286972063790e+01 5.024018151874404481e+01 5.675720249366688819e+01 4.029610384602847262e+01 3.253208527779670334e+01 4.151925728535173477e+01 5.476322867686430840e+01 6.474213637000083565e+01 6.820724660317888777e+01 5.912005332863272145e+01 6.733152509866918933e+01 6.526287219412922980e+01 6.430646788547481663e+01 6.627486590465628069e+01 6.662145589336887497e+01 6.752656542769270231e+01 6.731380249733500420e+01 6.989416449071657667e+01 7.073991254347636470e+01 7.329386393589263093e+01 7.800172681108044515e+01 8.007667913159835393e+01 7.937936279499194825e+01 7.572038607177083236e+01 5.670768130913813110e+01 5.601041581108977141e+01 6.140885328071610161e+01 6.868583747662030703e+01 7.558127199158761300e+01 8.113375460085791246e+01 8.532641991493592570e+01 9.047678602254761415e+01 9.283980974440227385e+01 9.276539324533203512e+01 9.142311184704594496e+01 8.501792082960490404e+01 8.172444242570055906e+01 7.774310629034081899e+01 7.742535274245948074e+01 7.662752524514797869e+01 8.493994243210411810e+01 8.772323118513241980e+01 9.319217037511046442e+01 9.606428093058983109e+01 1.016712254566260043e+02 1.056124879391099398e+02 1.090041615073477601e+02 1.125120364582611217e+02 1.158793757629568972e+02 1.204737393806925638e+02 1.194126871884922707e+02 1.152692752773493226e+02 1.115024811738582571e+02 1.085677540264687053e+02 1.085981764599497978e+02 1.088156948546170923e+02 1.121570986986686336e+02 1.151886324662904855e+02 1.173050905427469957e+02 1.192734837353229551e+02 1.217795994534396442e+02 1.251825099963782009e+02 -9.999000000000000000e+03 -9.999000000000000000e+03
-9.999000000000000000e+03 -9.999000000000000000e+03 -9.999000000000000000e+03 -9.999000000000000000e+03 8.520887838088601995e+01 8.339445864203710812e+01 8.153203285600829986e+01 7.731690681385475727e+01 7.139341785731863865e+01 6.570753951462437215e+01 6.111614405592775512e+01 4.921839587048867060e+01 4.601784254302855004e+01 3.813650089251440534e+01 4.711602083437752952e+01 6.209646568278962064e+01 7.230089853702743596e+01 7.486236235846006082e+01 7.273075681982325591e+01 6.658894672425959982e+01 6.101341198993020498e+01 5.043238194354632498e+01 3.972631757091135540e+01 3.145502517368823447e+01 3.775042546407225785e+01 4.127088504972198280e+01 3.836460596292911163e+01 4.944251549169459281e+01 5.970278674631174454e+01 6.844205511950400478e+01 6.914294494635294086e+01 6.928072008212646438e+01 7.062657270804606924e+01 7.270732618025618876e+01 7.262084340149799289e+01 7.141770561427827602e+01 7.291905214661048262e+01 7.542101595130736769e+01 7.685292695687159892e+01 7.703949242453151669e+01 8.040523614454409085e+01 8.241428702069860890e+01 7.844883727422636355e+01 6.738884665681003128e+01 5.679707970104886527e+01 5.311134580949439510e+01 7.158817455964376109e+01 7.661505128702106049e+01 7.958094344392910102e+01 8.277790529594416569e+01 8.462535013775365655e+01 8.611226942638526793e+01 8.381176051079015110e+01 7.615263124622019575e+01 7.398832322156421526e+01 7.034435535023195030e+01 7.312186006970033247e+01 7.518772591143223849e+01 8.362768759501565796e+01 9.035928955569471555e+01 9.379484076286513528e+01 9.532285811673065723e+01 1.005733762761027492e+02 1.036266450249745077e+02 1.059460289734450384e+02 1.088867588221532259e+02 1.118195073716912447e+02 1.156666246784947987e+02 1.188312530154367721e+02 1.227903070351442523e+02 1.259260711920518787e+02 1.215966949538576642e+02 1.191610134800058631e+02 1.123440739508238124e+02 1.087238195271009999e+02 1.095499985400791871e+02 1.147712485963611897e+02 1.192604621871893329e+02 1.229921567351625100e+02 1.256611754470929867e+02 1.241785520089819101e+02 1.260160696099132309e+02 -9.999000000000000000e+03 -9.999000000000000000e+03
-9.999000000000000000e+03 -9.999000000000000000e+03 -9.999000000000000000e+03 -9.999000000000000000e+03 8.310642737314769590e+01 8.164484471418158762e+01 7.955531513063425564e+01 7.549922179025477931e+01 7.092898469427321118e+01 6.486546871531433567e+01 6.187444990861563809e+01 5.895565177121316225e+01 5.801501465358265364e+01 3.717066745414626894e+01 5.515841465569796753e+01 6.877263049145517471e+01 7.410117916898724388e+01 7.516239739820365173e+01 7.124373033056559734e+01 6.478915879285742108e+01 5.324134561710375380e+01 4.486241657196701738e+01 3.285597777506551154e+01 3.090527820417176486e+01 4.812606761178650316e+01 5.483400277825279545e+01 5.135846192860652337e+01 5.854987932330960376e+01 5.801197073666072157e+01 5.813988938058184175e+01 6.199901355229094690e+01 7.088230337345393650e+01 7.569473018617495086e+01 7.805315866991323048e+01 7.734647280653902612e+01 7.500839534774988238e+01 7.737540186108064688e+01 8.121967191309566658e+01 8.239115243590808291e+01 8.429370384170086083e+01 8.358499505626996040e+01 8.478746061227592179e+01 8.131254289086972165e+01 7.959066918030863746e+01 7.494222853019783770e+01 5.362204040685455908e+01 5.624218864738608659e+01 6.041253070560330940e+01 5.974764660212510137e+01 6.096731800545164504e+01 6.211977446953782334e+01 6.414902830470924755e+01 6.443024241771588834e+01 6.683077965816970334e+01 7.726212433933605439e+01 8.221958441755695901e+01 7.697009716268726720e+01 8.567076724509942665e+01 8.835189961055871777e+01 9.388768198784380559e+01 9.984755314002300963e+01 1.027085475158692702e+02 1.050285832993048274e+02 1.076045334240288724e+02 1.096088795789574419e+02 1.125592246215249901e+02 1.159314328594454224e+02 1.201682088777554469e+02 1.233229145962962860e+02 1.271488094445942068e+02 1.280337296802113372e+02 1.257281900116876869e+02 1.225048468300014690e+02 1.162469445126088061e+02 1.088959282316256747e+02 1.089496913017592732e+02 1.117985608714752175e+02 1.174125868055495516e+02 1.255859136648851120e+02 1.287254466087595404e+02 1.274508832624904073e+02 1.271799526263280455e+02 1.296072403018860655e+02 -9.999000000000000000e+03
-9.999000000000000000e+03 -9.999000000000000000e+03 -9.999000000000000000e+03 8.250743993953746269e+01 8.132833158976899313e+01 7.867673784630687805e+01 7.674810439178277477e+01 7.285263406179342383e+01 6.770659769707363296e+01 6.085999854383074847e+01 5.841014330143757149e+01 6.070358217644506027e+01 5.810437136186418172e+01 3.471979536245913067e+01 6.064212920355236491e+01 6.860004569397602836e+01 7.003516482855221170e+01 6.804669141843695002e+01 5.673741767931313973e+01 4.479687145469625165e+01 4.139144042395809464e+01 3.104637894946072407e+01 3.035811959170441909e+01 4.364453476113915542e+01 5.196932225372403025e+01 5.604522060551281726e+01 5.773788269737597290e+01 5.931180688936865408e+01 5.802615462557720605e+01 5.801680977992050714e+01 6.119638649533465014e+01 6.818709949647738711e+01 7.280825830908129603e+01 7.900885668394910510e+01 8.099902283574033390e+01 8.226091326205470011e+01 8.456667405072761312e+01 8.686887419492119022e+01 8.780488949155483169e+01 9.138880595481955993e+01 9.080190931166625035e+01 8.931625784216282682e+01 8.773882470016857837e+01 8.606436495851737334e+01 8.026135763222345076e+01 5.568943114844714870e+01 6.372353124438701855e+01 6.881733019554414454e+01 6.894713471912768910e+01 6.956983949983104765e+01 6.844655197717324313e+01 7.274258632985204542e+01 7.913741456847830591e+01 7.274516450638964216e+01 8.406699747497961539e+01 8.936010456861022533e+01 8.226017082024115723e+01 9.149753812881307624e+01 9.573685258123302333e+01 9.948873581083515205e+01 1.040402466829172567e+02 1.067789239482792567e+02 1.083772613154187070e+02 1.106257701991899154e+02 1.136802728816097101e+02 1.177107413757746883e+02 1.213663842072318744e+02 1.256656833509042173e+02 1.281802369273882221e+02 1.297255962039369876e+02 1.284168652370679524e+02 1.262552196483715363e+02 1.239434115712677595e+02 1.169445773427251254e+02 1.097521099129365325e+02 1.091670243086893919e+02 1.121115931232005636e+02 1.196057195385522078e+02 1.263749306273174398e+02 1.296772894890756902e+02 1.292339284796497054e+02 1.285325437743370856e+02 1.289537107765825965e+02 -9.999000000000000000e+03
-9.999000000000000000e+03 -9.999000000000000000e+03 -9.999000000000000000e+03 8.221641363177704420e+01 7.942164951167160325e+01 7.469043641619072105e+01 7.193576220671688759e+01 6.962373254219767205e+01 6.623785139992091331e+01 5.888770002777754087e+01 5.693428345796601064e+01 5.945895973049299243e+01 5.652729251465179061e+01 3.224780220888227689e+01 5.905922481880791963e+01 6.486789846661865511e+01 4.889803415060404035e+01 3.630265217771704300e+01 3.442159355827705980e+01 3.359122338365443028e+01 3.017692669464413768e+01 3.162861254535965827e+01 3.766805978478289774e+01 4.139677722247181890e+01 5.139999306881041718e+01 5.795208559131465620e+01 6.437655497185059517e+01 6.585765989945456056e+01 6.414164477575775436e+01 5.883030185667093548e+01 5.802327540968144604e+01 6.042037917732968566e+01 7.052210488894678520e+01 8.022226741092191560e+01 8.468761701306399914e+01 8.785034318425073252e+01 8.995232039268495328e+01 9.212298489007234537e+01 9.354429349450302311e+01 9.467757574803671616e+01 9.472685676512234920e+01 9.130275854446558981e+01 9.107752289661625866e+01 8.795368804922733830e+01 7.996944394336088635e+01 5.704753639941474574e+01 6.565001880066138540e+01 7.438607354779770731e+01 7.766804295077498921e+01 7.835271139328892787e+01 7.876116773866182541e+01 7.815562864700635259e+01 8.526586549102783863e+01 8.289726050026875726e+01 8.130784499784050467e+01 9.052505346897105198e+01 9.236761419870113343e+01 9.271318666306289913e+01 9.963372890539073978e+01 1.031527763180203721e+02 1.074874588616628301e+02 1.104515864505753626e+02 1.122801955206644351e+02 1.150791781632172643e+02 1.199955261834081739e+02 1.234155231136395940e+02 1.271145313761293352e+02 1.294877878082370160e+02 1.304506488699365434e+02 1.296039098491561106e+02 1.263948149067583557e+02 1.256977753872900223e+02 1.263898351185779916e+02 1.199797752895292717e+02 1.109482857787389207e+02 1.139787410680775395e+02 1.135300999801149828e+02 1.204009395371905811e+02 1.273022236737801478e+02 1.294522767052367271e+02 1.296668712873167237e+02 1.292163450629253418e+02 1.288781256536641138e+02 -9.999000000000000000e+03
-9.999000000000000000e+03 -9.999000000000000000e+03 -9.999000000000000000e+03 7.942037336341431342e+01 7.688922543566296497e+01 7.135793658037343334e+01 6.652554173960427875e+01 6.483527489782012765e+01 6.008782389078317010e+01 4.792821393365390747e+01 5.722735080669433216e+01 5.718206224859207509e+01 5.161070194489233387e+01 3.083657193451095679e+01 5.550899869579639301e+01 3.351219841876030614e+01 2.725794442101125981e+01 2.930573269150180948e+01 2.904951204177952917e+01 3.003762557207950579e+01 3.769525191398236785e+01 5.053774433110332609e+01 4.681539856494847385e+01 5.659066638990355358e+01 5.817778864182328391e+01 6.474247475765899651e+01 7.039027093216222397e+01 7.215772038087111184e+01 7.544115142078081249e+01 7.629438641556376410e+01 5.808226575223528698e+01 5.988482618799884705e+01 7.506313112052343683e+01 8.302765905100055477e+01 8.725056651816350950e+01 9.028769100644441892e+01 9.236762423148468315e+01 9.244395245315610055e+01 9.523007771118317066e+01 9.661312678502450524e+01 9.517870807518622200e+01 9.141356058851340549e+01 8.770930098491010085e+01 8.087981895089576767e+01 6.579965735721651754e+01 6.164639705392719549e+01 6.455810621646590164e+01 7.679033916995790321e+01 8.189879891805635737e+01 8.532567967373056206e+01 8.522254123449238250e+01 7.856092717492443001e+01 8.927310816671280236e+01 8.961619352349956102e+01 8.514708793752650706e+01 9.408125548349950407e+01 9.765380211108922026e+01 9.892229590187741906e+01 1.025323001635620130e+02 1.069144191383071103e+02 1.103274474899277777e+02 1.141380401357788799e+02 1.171405366990841515e+02 1.214091594141237778e+02 1.246618404803644182e+02 1.276524459892448249e+02 1.301407948705809190e+02 1.298013348216644829e+02 1.284663333013141084e+02 1.258836920796737502e+02 1.235591762643369691e+02 1.196517314077750456e+02 1.198284125214661060e+02 1.135540238752357425e+02 1.142752374595864069e+02 1.181325128660379420e+02 1.162948405609525508e+02 1.176295852242740807e+02 1.204550081200739982e+02 1.228916283641468965e+02 1.284806353997493034e+02 1.276653831441388292e+02 1.281686802098091391e+02 1.295236999999999910e+02
-9.999000000000000000e+03 -9.999000000000000000e+03 7.764678045561183239e+01 7.565237596202014458e+01 7.338576396583640360e+01 6.772413223462645249e+01 6.018128327132014732e+01 5.701079362875438505e+01 5.177678118652062267e+01 4.476051492964473510e+01 5.771980291912969108e+01 5.797928806392852152e+01 4.692754333950762913e+01 2.804697040134818309e+01 2.990048419879750341e+01 2.682545491983035291e+01 3.232356678275895945e+01 3.661368141234075324e+01 4.259427544954536415e+01 4.897646091372411092e+01 5.435885189443278165e+01 5.824836763887083890e+01 5.391475202373652564e+01 6.371420487380886755e+01 6.566031019880479391e+01 7.328010161986060211e+01 7.843007180931635958e+01 8.188668260771626706e+01 8.309438279136810479e+01 7.778015675064786194e+01 6.528745578973820329e+01 5.805061483588969651e+01 6.408729421274578897e+01 7.620259324797237355e+01 7.623897719966164743e+01 7.869648423154995953e+01 8.163466289271443088e+01 8.991871244748406866e+01 9.415834648220410941e+01 9.425528649074998100e+01 8.855435742623836859e+01 8.162112155187995199e+01 7.672691249143836956e+01 6.562637266532438218e+01 6.012573641827301429e+01 7.185491333725371987e+01 6.935813899603830635e+01 7.901508191778590628e+01 8.533510762997815391e+01 8.999651831378271538e+01 9.038717410846798828e+01 8.501839262441957601e+01 9.093569549959484277e+01 9.419677942412823768e+01 9.123073036522093560e+01 9.641445602008847970e+01 1.011124389643042036e+02 1.035231170029304906e+02 1.074196598820178963e+02 1.105462624393598503e+02 1.141400923883303875e+02 1.181721204279242841e+02 1.222411029787072891e+02 1.249168675782323987e+02 1.285790758175260748e+02 1.302905108221631281e+02 1.304487744104046669e+02 1.279415335722734142e+02 1.241163912418465145e+02 1.217755497068157950e+02 1.232947971788541537e+02 1.167776891421792556e+02 1.133369086670211061e+02 1.140848473104012299e+02 1.167541783853290980e+02 1.205111734502415999e+02 1.192417309589115177e+02 1.180132679754562588e+02 1.179114168198892969e+02 1.203968561881538903e+02 1.239300802988211245e+02 1.263139237968774040e+02 1.283256633906720197e+02 1.303708000000000027e+02
-9.999000000000000000e+03 -9.999000000000000000e+03 -9.999000000000000000e+03 7.186677507102280060e+01 6.656598186016118746e+01 6.121852438217168668e+01 5.498224486707709957e+01 4.678318423246746960e+01 4.994515579415050865e+01 4.948526496730801938e+01 5.802395411115354307e+01 5.458054641780039162e+01 4.036790091846323492e+01 2.647230311278539361e+01 2.857810566058942925e+01 3.152012724930554910e+01 3.421469694711483811e+01 4.071018280905235542e+01 4.786765660338489425e+01 5.422029082795604182e+01 6.475559233875496545e+01 5.774606327236470804e+01 6.112045637587527125e+01 7.006965528847075575e+01 7.299808894376420199e+01 7.785497063633282266e+01 8.310973819296059162e+01 8.691087427049905045e+01 8.479895827370560824e+01 7.328583501933256628e+01 6.938729975181426823e+01 5.902108490632917182e+01 6.519363169609177078e+01 6.817632543224870290e+01 7.467040716087396390e+01 8.122493791097008398e+01 8.566428672679134593e+01 9.043900140283994915e+01 9.405757655360002900e+01 9.261877899607432596e+01 8.756710616733961672e+01 8.515096128837799938e+01 7.683701833729210762e+01 6.198601920388818343e+01 7.290964761661435034e+01 7.976343426175019147e+01 7.565909608371221395e+01 8.317127262751321837e+01 8.850421475314675490e+01 9.245356336514920770e+01 9.448892199295499950e+01 9.043956737672577617e+01 9.514508479592396384e+01 9.808797540821112193e+01 9.884992868612069117e+01 9.745320818981022626e+01 1.040215928175475000e+02 1.083829687376068449e+02 1.118157943934309202e+02 1.147374804466257388e+02 1.185244945781641519e+02 1.233536763156739653e+02 1.272349081500963592e+02 1.291227912530575850e+02 1.309520287155561107e+02 1.313064966226904744e+02 1.301692725495792331e+02 1.273259822983727219e+02 1.241277568044554585e+02 1.208628450384482420e+02 1.171332929143122499e+02 1.151553235536771496e+02 1.132774972169197696e+02 1.172463516995560013e+02 1.221675155041760661e+02 1.221592985599427266e+02 1.207680556136437247e+02 1.216323901481382137e+02 1.217540200976518321e+02 1.231730192165311450e+02 1.268218586726510324e+02 1.300229199625542833e+02 1.299741501943375965e+02 1.299465999999999894e+02
-9.999000000000000000e+03 -9.999000000000000000e+03 -9.999000000000000000e+03 6.748517383526144897e+01 6.422809658051589565e+01 5.622061686024954952e+01 4.887914269649816390e+01 4.104154441891268590e+01 4.130329623917010906e+01 5.005691726119891882e+01 5.436755363977354705e+01 4.650338488162534389e+01 2.609026166256682444e+01 2.679202761496736684e+01 3.369905098080182881e+01 3.714925187583180843e+01 3.794532019431968450e+01 4.012187315066912419e+01 5.452005994917444553e+01 6.045248300656182039e+01 6.370292098092748745e+01 7.543853895013143074e+01 7.241467434113154411e+01 6.880509041227401212e+01 7.865589928534160435e+01 8.451762550679723063e+01 8.925700126078639585e+01 8.889415612924125298e+01 8.493218188170280314e+01 7.646906189697381251e+01 6.934728032835565159e+01 7.204548212209321889e+01 7.485049819988665831e+01 7.725083719774721658e+01 8.208198225312129637e+01 8.558753987572082167e+01 9.068253145783205582e+01 9.352853759610930240e+01 9.517680075563441733e+01 9.242760870620756464e+01 9.045165962913641522e+01 8.357491181857258766e+01 7.674510158487369438e+01 6.293872920377785363e+01 7.977032601668847178e+01 8.433315937270991469e+01 8.305147596312612279e+01 8.269337992761803946e+01 8.845021728131713701e+01 9.354692653549301440e+01 9.772865228832218065e+01 9.796735751203136999e+01 1.001746476646763142e+02 1.027889877985644063e+02 1.035513426290392687e+02 1.045208561184362424e+02 1.086341530394735742e+02 1.127316214311366878e+02 1.171215135184805689e+02 1.199529449362225222e+02 1.245953824396648884e+02 1.277941769636370992e+02 1.305945487363108271e+02 1.320121833702249035e+02 1.319492475721461915e+02 1.300102444259246397e+02 1.317973211644753349e+02 1.307768327350864013e+02 1.268723381349452097e+02 1.272626876221920895e+02 1.207255447597256364e+02 1.151883320922951128e+02 1.139036473285602824e+02 1.170977722996538972e+02 1.230942429560268607e+02 1.235975532124881227e+02 1.221586246576316199e+02 1.251962259503161903e+02 1.257814848371530161e+02 1.271350342298740230e+02 1.291084845837518742e+02 1.329689257620369460e+02 1.316685487100925229e+02 1.310270999999999901e+02
-9.999000000000000000e+03 -9.999000000000000000e+03 -9.999000000000000000e+03 -9.999000000000000000e+03 5.926175243739191245e+01 5.472228410726375358e+01 5.465127747359818500e+01 5.415129030332971638e+01 5.201437734518982126e+01 3.304287936037417239e+01 4.862181565545664341e+01 3.442249296613392318e+01 2.600929904990183772e+01 3.447172350604886049e+01 4.049944287688620648e+01 4.662484383348878936e+01 5.012829523880706262e+01 5.479973659330197933e+01 5.968830376184209285e+01 6.779047575109895263e+01 7.614547791080885020e+01 8.059299727293590365e+01 7.700211672554435438e+01 7.491090224487290072e+01 8.387664838751307173e+01 8.963128307408366879e+01 9.240779496407544968e+01 8.955953384372034520e+01 8.019610388147337687e+01 7.547101777472593653e+01 7.014875707994444554e+01 7.831398715716105130e+01 8.301360038981228229e+01 8.294635828404034328e+01 8.816880253676086454e+01 9.171721311419858580e+01 9.385487729250681355e+01 9.534516602301758326e+01 9.407869450758933283e+01 8.767123520431080408e+01 7.186929258224633088e+01 6.667380034160755997e+01 6.576186599080648421e+01 6.924030615045640502e+01 8.158666234863339639e+01 8.896683971446715589e+01 8.982020547349041806e+01 9.281029923220623346e+01 9.636387914097828400e+01 9.775664644777762646e+01 1.006637947495496803e+02 1.022541191329925141e+02 1.030257238744433437e+02 1.060633677566420232e+02 1.076415055492004740e+02 1.092070163184467617e+02 1.124886674935521285e+02 1.174048659577529321e+02 1.222449721046170765e+02 1.265877187643069135e+02 1.279964220542368452e+02 1.307906115343232329e+02 1.327774951726664199e+02 1.331327197308209236e+02 1.313584993419456168e+02 1.264940000020432080e+02 1.277422981155571335e+02 1.309222061982616481e+02 1.222240694476761007e+02 1.200498503576692997e+02 1.167865368391700400e+02 1.154869778874425066e+02 1.163899495635229044e+02 1.180724515960422139e+02 1.216702549452471516e+02 1.261148708821708908e+02 1.243171466642035199e+02 1.241153783295475677e+02 1.259998207826952950e+02 1.266546981079357437e+02 1.271008647202799864e+02 1.289119509187218284e+02 1.298530228375340130e+02 -9.999000000000000000e+03
-9.999000000000000000e+03 -9.999000000000000000e+03 -9.999000000000000000e+03 -9.999000000000000000e+03 -9.999000000000000000e+03 5.784944092574541230e+01 5.654524672582969202e+01 5.570126993434528373e+01 5.300798181931120467e+01 4.327540452034858021e+01 3.768971066417267224e+01 2.932401707769987098e+01 2.689906283258803654e+01 3.986131312685497363e+01 4.802970606855738112e+01 5.492140957149959490e+01 6.022963417201086145e+01 6.068183265916150049e+01 5.969804280402645702e+01 6.741030094811409867e+01 7.786871277552495485e+01 8.075171060541926238e+01 7.995662407956406525e+01 8.322134863515600500e+01 8.580933336503998987e+01 9.270515953158907507e+01 9.204900501980390004e+01 8.561094757767671126e+01 8.015871243155457648e+01 7.720348219648663246e+01 7.752587656027434093e+01 8.324826556896306329e+01 8.722459263911586902e+01 8.822971818043045289e+01 9.088990687005643565e+01 9.386931961304350125e+01 9.400701632382487105e+01 9.364189747873642489e+01 8.986391966511871487e+01 7.850797711949053337e+01 7.511013076381317433e+01 7.803003573618607902e+01 7.983351497536145303e+01 8.495020860861627909e+01 8.908366995386650444e+01 9.422228839278368184e+01 9.562573707114668764e+01 9.834039701716540094e+01 1.014612503407025628e+02 1.017466076063712279e+02 1.036863816224263246e+02 1.057900272408951849e+02 1.066304305605284668e+02 1.093878232061126425e+02 1.114459230513260763e+02 1.141799866033372695e+02 1.166601575759746083e+02 1.214538398349727260e+02 1.265111016022140831e+02 1.293992361286774155e+02 1.313171080002500162e+02 1.326314820407216644e+02 1.343038194374541661e+02 1.355232588460651755e+02 1.371111775383796214e+02 1.266842275564470981e+02 1.221542992398919694e+02 1.231233205859048354e+02 1.200345169253731115e+02 1.171029473454880332e+02 1.162857904332277883e+02 1.174958476499719495e+02 1.203732564645283958e+02 1.214553682299934678e+02 1.242217498510734686e+02 1.280667760220327125e+02 1.277021305831939912e+02 1.260687996129762212e+02 1.259621027283887429e+02 1.266489125195416250e+02 1.280013685764223794e+02 1.286788945601238083e+02 -9.999000000000000000e+03 -9.999000000000000000e+03
-9.999000000000000000e+03 -9.999000000000000000e+03 -9.999000000000000000e+03 -9.999000000000000000e+03 -9.999000000000000000e+03 5.848710207306298514e+01 5.747304921658754751e+01 5.287182764673384838e+01 4.966236638130722980e+01 4.618996300660994336e+01 3.082165766762731351e+01 2.519897363020104919e+01 2.993282133364074582e+01 4.532874469206927159e+01 5.588028800873203750e+01 6.255354872889552809e+01 6.946084344538581945e+01 7.787680856707935106e+01 6.932840102889038292e+01 5.975067612541249673e+01 7.351926912261536984e+01 7.697987686234307603e+01 8.320383955803566778e+01 8.934947565237214917e+01 9.190255536600356834e+01 9.307951562795564371e+01 9.088572681923494656e+01 8.520314652596754001e+01 8.173410376571919755e+01 7.766554613609275748e+01 8.400552248100784425e+01 8.803175996478626075e+01 9.104430124018701065e+01 9.228941969966203374e+01 9.321810280718325714e+01 -9.999000000000000000e+03 9.242428748948843520e+01 8.951873218078380035e+01 8.254679764749033666e+01 7.513517325470252217e+01 7.638943445911486663e+01 8.580784959848406857e+01 8.882916743053679909e+01 9.301804647038628104e+01 9.677158611229187102e+01 9.939394051605431457e+01 1.007494201059688805e+02 1.029953231874405901e+02 1.042621744425304229e+02 1.047267467072233842e+02 1.055627634870394758e+02 1.075092934247221308e+02 1.096528348219714815e+02 1.127646431083889524e+02 1.157315666438850741e+02 1.205155669616259928e+02 1.222650580352046035e+02 1.254028336486581310e+02 1.279350799556662253e+02 1.290874184707049608e+02 1.304505482430890879e+02 1.327316894622872780e+02 1.361600484397319804e+02 1.401926507522441909e+02 1.410890560692027407e+02 1.349874048697787430e+02 1.247366483631030007e+02 1.199093553769234006e+02 1.177019959239859048e+02 1.172803244732522359e+02 1.187372931170890809e+02 1.217299340681189648e+02 1.255571724557353264e+02 1.257063321462078989e+02 1.258756666381667060e+02 1.275176028548528961e+02 1.296881476493053640e+02 1.282873159455520806e+02 1.293136972325050351e+02 1.297045037321117036e+02 -9.999000000000000000e+03 -9.999000000000000000e+03 -9.999000000000000000e+03 -9.999000000000000000e+03
-9.999000000000000000e+03 -9.999000000000000000e+03 -9.999000000000000000e+03 -9.999000000000000000e+03 6.222872674457232023e+01 5.975180514814617538e+01 5.756167306016013185e+01 5.153271234780959276e+01 4.399987090125205924e+01 3.637071374233391197e+01 2.950214296168804395e+01 2.408283785066686633e+01 3.751845071599616688e+01 5.269431146631083607e+01 6.605583703127499007e+01 7.551591841345315004e+01 8.222870494281376352e+01 8.283270135427858349e+01 7.752702923129633916e+01 6.562393003702261751e+01 6.845177014216774580e+01 8.074083851357042363e+01 8.747895113422408997e+01 9.241937456805034401e+01 9.277757795533113949e+01 9.208689559734921204e+01 8.625902022776827494e+01 8.507819586661497624e+01 8.503211739755373344e+01 8.487685562518355198e+01 8.782187952803784015e+01 9.142447643255076173e+01 -9.999000000000000000e+03 -9.999000000000000000e+03 -9.999000000000000000e+03 -9.999000000000000000e+03 9.319186959379094048e+01 9.246667343133350414e+01 9.003987799200064046e+01 8.551383464932078482e+01 7.518211950509807195e+01 7.791865113022475953e+01 9.115572385535004685e+01 9.618314166129093223e+01 9.965532699419119922e+01 1.021037374226325483e+02 1.032580012977155661e+02 1.041192442718321587e+02 1.046053363328507828e+02 1.055674183095920853e+02 1.077451435406871525e+02 1.112675747754806821e+02 1.140294181360784336e+02 1.151691642235548585e+02 1.209478482083987814e+02 1.250847740805520232e+02 1.262901706905488055e+02 1.260900690358934639e+02 1.255046686048864046e+02 1.257758392115892292e+02 1.269072150543677822e+02 1.276682828488549148e+02 1.353146887605245468e+02 1.356172720509577516e+02 1.375689654260159500e+02 1.384029754139433237e+02 1.292234999217966447e+02 1.248511173001999452e+02 1.189965372100995182e+02 1.201461400938807316e+02 1.237026966175413776e+02 1.257629971786313376e+02 1.289873157425371915e+02 1.305615923342128610e+02 1.297686112733301229e+02 1.282135684639854674e+02 1.291358716278174370e+02 1.294310548289123233e+02 1.300373613903200294e+02 1.306918263684715953e+02 -9.999000000000000000e+03 -9.999000000000000000e+03 -9.999000000000000000e+03 -9.999000000000000000e+03
-9.999000000000000000e+03 -9.999000000000000000e+03 -9.999000000000000000e+03 6.031196609467915692e+01 5.890183667113049637e+01 5.855617573194555092e+01 5.379074117824790591e+01 4.737833029504482596e+01 2.897968189953318330e+01 2.290110472014206167e+01 2.396755800199381525e+01 3.653654702678203137e+01 5.084645954749660746e+01 6.501216040046656985e+01 7.547330375219694076e+01 8.287673066205954342e+01 8.632095762294738961e+01 8.368461353804107716e+01 7.654362977375797072e+01 6.312883039912932048e+01 7.281516353264488828e+01 8.384727689490543412e+01 8.847471387224882733e+01 9.098438461680294154e+01 9.019153261285602241e+01 8.971062977602852584e+01 8.966628646583325235e+01 8.987344551319407060e+01 9.083297245554612687e+01 9.057567537182248429e+01 9.070262127253924689e+01 -9.999000000000000000e+03 -9.999000000000000000e+03 -9.999000000000000000e+03 -9.999000000000000000e+03 -9.999000000000000000e+03 -9.999000000000000000e+03 9.488719793627650745e+01 9.475368594527103028e+01 9.250071988374881471e+01 8.676548840311758681e+01 7.645566513650243223e+01 8.634524317945904670e+01 9.781593984072829073e+01 1.005920597697075465e+02 1.004984586051600530e+02 1.007576461234196472e+02 1.000667819478552474e+02 1.023116353934855169e+02 1.064846999526138518e+02 1.105224352008680455e+02 1.143141835690150003e+02 1.173466295059117925e+02 1.209036682799099367e+02 1.251178785521954495e+02 1.260347476166985672e+02 1.247884251150993578e+02 1.239249500226420935e+02 1.208559959909650559e+02 1.166890899435617968e+02 1.163898293196735949e+02 1.180543228845021986e+02 1.240059331689142397e+02 1.275606999506599948e+02 1.311687648736090921e+02 1.322542591564938448e+02 1.282973714368260119e+02 1.251443494579566647e+02 1.222235657720896427e+02 1.238341110957569668e+02 1.285955268312453939e+02 1.299851560277675731e+02 1.325953489065297788e+02 1.348875176845796773e+02 1.328551423750682545e+02 1.297907315785033973e+02 1.289341136941230275e+02 1.304740986296004905e+02 1.309534210511349102e+02 -9.999000000000000000e+03 -9.999000000000000000e+03 -9.999000000000000000e+03 -9.999000000000000000e+03 -9.999000000000000000e+03
-9.999000000000000000e+03 -9.999000000000000000e+03 -9.999000000000000000e+03 5.790642408785793549e+01 5.270909592102379548e+01 4.616116914203023214e+01 3.406491537878736153e+01 2.370561399443741735e+01 2.406695156787316847e+01 2.391553297311641657e+01 4.434504220564443244e+01 5.556986018704539276e+01 6.900861355330883384e+01 7.385945180571923174e+01 8.099971059706867038e+01 8.697357991458420656e+01 8.708508290204301261e+01 8.133829009814640187e+01 7.514624488615609721e+01 7.001381681252777867e+01 7.642018456397696013e+01 8.379603764499285035e+01 8.611430986236614160e+01 8.434467447588859557e+01 8.737080001787433048e+01 9.052554493623138399e+01 9.206482312580097016e+01 -9.999000000000000000e+03 -9.999000000000000000e+03 -9.999000000000000000e+03 -9.999000000000000000e+03 -9.999000000000000000e+03 -9.999000000000000000e+03 -9.999000000000000000e+03 -9.999000000000000000e+03 -9.999000000000000000e+03 -9.999000000000000000e+03 9.776963283963834783e+01 9.830421907214656585e+01 9.750877253204579631e+01 9.450549640214957492e+01 8.439779462102869445e+01 7.942294233346140686e+01 9.576978307947530311e+01 9.438083911609963650e+01 9.260524912002919962e+01 9.579187157345000969e+01 1.013088675830861121e+02 1.050492320546778018e+02 1.092268725701098191e+02 1.139702815648528968e+02 1.191861719311598620e+02 1.219906163538003909e+02 1.237622350762304251e+02 1.259707270456553658e+02 1.248058296160107830e+02 1.197154471337395165e+02 1.147066473584395396e+02 1.128198787176687006e+02 1.135915137010368454e+02 1.177965777219130956e+02 1.273880371264726392e+02 1.260903635789376409e+02 1.260926357344546744e+02 1.285358751704411588e+02 1.291872221332114066e+02 1.269957976560533695e+02 1.244050107846783391e+02 1.274643661671797190e+02 1.284595738109269405e+02 1.316976419399671556e+02 1.332301063482487677e+02 1.357952487725248716e+02 -9.999000000000000000e+03 -9.999000000000000000e+03 -9.999000000000000000e+03 -9.999000000000000000e+03 -9.999000000000000000e+03 -9.999000000000000000e+03 -9.999000000000000000e+03 -9.999000000000000000e+03 -9.999000000000000000e+03 -9.999000000000000000e+03 -9.999000000000000000e+03
-9.999000000000000000e+03 5.061591830196427821e+01 5.246359883254118017e+01 5.509458991053534049e+01 4.919203417861165661e+01 3.960975759749089775e+01 2.452723780007716314e+01 3.255876091195651156e+01 3.492650689613139292e+01 4.246531285233595554e+01 5.696438019943443010e+01 6.360816251799037957e+01 7.283184110497434460e+01 7.775275457336971385e+01 8.392202593322329562e+01 8.455012843654930066e+01 8.008615993647327969e+01 7.847466167271582549e+01 7.371913730769992412e+01 7.225998935277792157e+01 7.693160848389634054e+01 7.844087545276028095e+01 7.962963494321506630e+01 8.565165124438152588e+01 8.898830827556923850e+01 9.085841079813272358e+01 -9.999000000000000000e+03 -9.999000000000000000e+03 -9.999000000000000000e+03 -9.999000000000000000e+03 -9.999000000000000000e+03 -9.999000000000000000e+03 -9.999000000000000000e+03 -9.999000000000000000e+03 -9.999000000000000000e+03 -9.999000000000000000e+03 -9.999000000000000000e+03 9.979294909115296264e+01 1.006944810868850624e+02 9.964879156364482071e+01 9.730190035680213612e+01 8.687181291952965978e+01 8.076789285848994382e+01 8.504091079022705912e+01 8.992687204680902369e+01 9.482798576547658342e+01 9.986620712076529571e+01 1.040466185400857881e+02 1.088702120695827062e+02 1.133557461139123461e+02 1.181896928271401492e+02 1.235312980928151774e+02 1.237565189926178562e+02 1.230134089507874791e+02 1.244270817401231852e+02 1.206357748690023755e+02 1.094590266258812505e+02 1.085330824140390718e+02 1.162120365193850660e+02 1.240444808547996018e+02 1.311387770161682909e+02 1.344106134760452846e+02 1.303142705713611917e+02 1.293651400177023163e+02 1.307871201213115739e+02 1.305796676701191927e+02 1.288073950972473369e+02 1.269673956553453564e+02 1.302386975748165696e+02 1.325389616339869860e+02 1.351547937840840063e+02 1.372876580558713613e+02 1.383729278610389315e+02 -9.999000000000000000e+03 -9.999000000000000000e+03 -9.999000000000000000e+03 -9.999000000000000000e+03 -9.999000000000000000e+03 -9.999000000000000000e+03 -9.999000000000000000e+03 -9.999000000000000000e+03 -9.999000000000000000e+03 -9.999000000000000000e+03 -9.999000000000000000e+03
2.706506999999999863e+01 3.039822751920306132e+01 4.826149766299828769e+01 4.832968383033311710e+01 4.403749297899328496e+01 3.128391322637124716e+01 3.329209554892008782e+01 3.944872495368097276e+01 4.000486088500377946e+01 4.655520115720565144e+01 4.493472146832442604e+01 5.783568871869513828e+01 6.465034794142950147e+01 7.249439552695348254e+01 7.363122035375491237e+01 7.257252808386283505e+01 7.367263541486430256e+01 7.725052292968962320e+01 7.410547033768810365e+01 7.320285751365355509e+01 7.342795349827017048e+01 7.814092662725298055e+01 8.239632770855018862e+01 8.647677616269450596e+01 8.952206030248824220e+01 -9.999000000000000000e+03 -9.999000000000000000e+03 -9.999000000000000000e+03 -9.999000000000000000e+03 -9.999000000000000000e+03 -9.999000000000000000e+03 -9.999000000000000000e+03 -9.999000000000000000e+03 -9.999000000000000000e+03 -9.999000000000000000e+03 -9.999000000000000000e+03 -9.999000000000000000e+03 1.017528671044836983e+02 1.015319748588574527e+02 9.908206558911594186e+01 9.338038936978678350e+01 8.121735962123496222e+01 8.829672828039677768e+01 9.302736248184319834e+01 9.756009070382911830e+01 1.014738864812820509e+02 1.047096629629962479e+02 1.082776983140900171e+02 1.123433537375533717e+02 1.162158850657317828e+02 1.217177020718528411e+02 1.240183150181099592e+02 1.206910451257694064e+02 1.165324841500756889e+02 1.155860592066814121e+02 1.078142678866318676e+02 1.068218475558887519e+02 1.114975090034963046e+02 1.225233133588709222e+02 1.355120555431972491e+02 1.384831906641906301e+02 1.379472640442668592e+02 1.354860218467275104e+02 1.341969069798707892e+02 1.349409445612955096e+02 1.330141328373777014e+02 1.313417114477697680e+02 1.288611542612450478e+02 1.306881491609589716e+02 1.350981985840037396e+02 1.376556636659426260e+02 1.406156984237061636e+02 -9.999000000000000000e+03 -9.999000000000000000e+03 -9.999000000000000000e+03 -9.999000000000000000e+03 -9.999000000000000000e+03 -9.999000000000000000e+03 -9.999000000000000000e+03 -9.999000000000000000e+03 -9.999000000000000000e+03 -9.999000000000000000e+03 -9.999000000000000000e+03 -9.999000000000000000e+03
-9.999000000000000000e+03 2.632703055395847258e+01 3.856210038073479751e+01 4.271172265192561213e+01 4.020838484196026741e+01 3.070282224416482109e+01 3.096557416738585644e+01 3.751631141961133409e+01 5.189273018644842494e+01 5.551646946135375771e+01 5.976479409049663616e+01 5.548787038772105973e+01 5.295833583048781890e+01 5.641513969064832423e+01 6.135865833768256294e+01 6.511522003556467553e+01 7.297975217366719392e+01 7.820367954992293846e+01 7.907500244489045826e+01 7.859254040297088295e+01 7.972403248012723509e+01 7.961964991895118260e+01 8.422024095216002593e+01 8.707189890609893723e+01 -9.999000000000000000e+03 -9.999000000000000000e+03 -9.999000000000000000e+03 -9.999000000000000000e+03 -9.999000000000000000e+03 -9.999000000000000000e+03 -9.999000000000000000e+03 -9.999000000000000000e+03 -9.999000000000000000e+03 -9.999000000000000000e+03 -9.999000000000000000e+03 -9.999000000000000000e+03 -9.999000000000000000e+03 1.020552475206764029e+02 1.000320695673464542e+02 9.508973741401941027e+01 9.250532198445780807e+01 8.345520406542745206e+01 8.799798370631624778e+01 9.734349622878818309e+01 1.025611133850310637e+02 1.059055304847745873e+02 1.080815586166378353e+02 1.102562229697365126e+02 1.132462268363801883e+02 1.169821634911217672e+02 1.215284034520870620e+02 1.231458071632680742e+02 1.117075008204906936e+02 1.075372294180684207e+02 1.047734097881695732e+02 1.060847753347420053e+02 1.117486000812147182e+02 1.181638749752897581e+02 1.252457215320372228e+02 1.302275900290742925e+02 1.322715616427395275e+02 1.371543492778320683e+02 1.386160965085263115e+02 1.381700582358838005e+02 1.373418199309669774e+02 1.343629781548110032e+02 1.319968117352587171e+02 1.316889074686370122e+02 1.352580695758943250e+02 1.378703333080376012e+02 1.402315193343367810e+02 -9.999000000000000000e+03 -9.999000000000000000e+03 -9.999000000000000000e+03 -9.999000000000000000e+03 -9.999000000000000000e+03 -9.999000000000000000e+03 -9.999000000000000000e+03 -9.999000000000000000e+03 -9.999000000000000000e+03 -9.999000000000000000e+03 -9.999000000000000000e+03 -9.999000000000000000e+03 -9.999000000000000000e+03
-9.999000000000000000e+03 -9.999000000000000000e+03 2.632710462960723419e+01 3.020927203980296483e+01 3.439590478653846617e+01 2.322934068621542281e+01 3.037633429429554255e+01 4.526793149852965570e+01 5.212736376116406234e+01 5.577756353293494129e+01 6.334617708761446409e+01 6.705626699728412632e+01 7.033876568268428287e+01 7.445340878889373926e+01 7.293605977149726982e+01 7.333784163757276531e+01 7.866850481358089553e+01 8.403720351456760795e+01 8.475952882886950590e+01 8.461086530873416223e+01 8.481359882695642227e+01 8.401410531691340111e+01 8.649391738407997821e+01 -9.999000000000000000e+03 -9.999000000000000000e+03 -9.999000000000000000e+03 -9.999000000000000000e+03 -9.999000000000000000e+03 -9.999000000000000000e+03 -9.999000000000000000e+03 -9.999000000000000000e+03 -9.999000000000000000e+03 -9.999000000000000000e+03 -9.999000000000000000e+03 -9.999000000000000000e+03 -9.999000000000000000e+03 1.028579503885147659e+02 1.016887654194418644e+02 9.970590803114377820e+01 9.952404507842150849e+01 9.694832097191320486e+01 8.611883447741999476e+01 8.436810530376125428e+01 9.843543314986649762e+01 1.025045264303602295e+02 1.050475068544950261e+02 1.072396811284360325e+02 1.094854957396090924e+02 1.097524607742768552e+02 1.155541928882401521e+02 1.206791709914507749e+02 1.197452575264428418e+02 1.053921325125688639e+02 1.025023405383911523e+02 1.030030548746293135e+02 1.116375886255073624e+02 1.214555025033844942e+02 1.249324593818514586e+02 1.222458221289457612e+02 1.225322784638145066e+02 1.262415295685406278e+02 1.366386619112541041e+02 1.366658626321210477e+02 1.374902701584649947e+02 1.359713615001606115e+02 1.346075223454381558e+02 1.334096493076818319e+02 1.352263303859625410e+02 1.397307879344522803e+02 -9.999000000000000000e+03 -9.999000000000000000e+03 -9.999000000000000000e+03 -9.999000000000000000e+03 -9.999000000000000000e+03 -9.999000000000000000e+03 -9.999000000000000000e+03 -9.999000000000000000e+03 -9.999000000000000000e+03 -9.999000000000000000e+03 -9.999000000000000000e+03 -9.999000000000000000e+03 -9.999000000000000000e+03 -9.999000000000000000e+03 -9.999000000000000000e+03
-9.999000000000000000e+03 -9.999000000000000000e+03 2.648575370772378790e+01 2.633003041885569218e+01 3.376885511124081063e+01 1.981077225512040840e+01 2.968593825073402570e+01 4.329254238583841641e+01 4.864208331013726649e+01 4.958284353637279196e+01 5.288600305681440261e+01 6.808040960490554028e+01 7.303937448508381181e+01 7.678065923297224060e+01 7.798395000790149822e+01 8.126519067032374721e+01 8.356672426249699015e+01 8.820656868606788237e+01 9.002882739341357876e+01 8.977475691826431614e+01 8.768571221388448578e+01 8.651092306317387681e+01 -9.999000000000000000e+03 -9.999000000000000000e+03 -9.999000000000000000e+03 -9.999000000000000000e+03 -9.999000000000000000e+03 -9.999000000000000000e+03 -9.999000000000000000e+03 -9.999000000000000000e+03 -9.999000000000000000e+03 -9.999000000000000000e+03 -9.999000000000000000e+03 -9.999000000000000000e+03 -9.999000000000000000e+03 -9.999000000000000000e+03 -9.999000000000000000e+03 1.038705851579285593e+02 1.042552887172162883e+02 1.028259447511128428e+02 9.326146965243788145e+01 8.931916649813443598e+01 8.748524388362208981e+01 8.948123922744690617e+01 9.829950643036734448e+01 1.013982935403063266e+02 1.049275877749414434e+02 1.086756558220660906e+02 1.036036469295865743e+02 1.151490795040202357e+02 1.207339961701599833e+02 1.086512559687465398e+02 1.006210102648332310e+02 1.033071698942962371e+02 1.110154841517916822e+02 1.161206455672395066e+02 1.143789287155480565e+02 1.164743041252514928e+02 1.167019931116902143e+02 1.198042251942643475e+02 1.245344735757566497e+02 1.315698172085718625e+02 1.338797998736576460e+02 1.342778835418168342e+02 1.344303546342959805e+02 1.345414765966528705e+02 1.359865081480754725e+02 1.398337393580954711e+02 -9.999000000000000000e+03 -9.999000000000000000e+03 -9.999000000000000000e+03 -9.999000000000000000e+03 -9.999000000000000000e+03 -9.999000000000000000e+03 -9.999000000000000000e+03 -9.999000000000000000e+03 -9.999000000000000000e+03 -9.999000000000000000e+03 -9.999000000000000000e+03 -9.999000000000000000e+03 -9.999000000000000000e+03 -9.999000000000000000e+03 -9.999000000000000000e+03 -9.999000000000000000e+03
-9.999000000000000000e+03 -9.999000000000000000e+03 -9.999000000000000000e+03 3.209409474921177008e+01 2.504217830378939880e+01 2.004518926447492433e+01 2.925141005726509036e+01 3.743200452903917608e+01 3.840672549080984766e+01 5.042323954863570634e+01 6.303258548147083218e+01 6.811768401443016785e+01 7.406846899385074323e+01 7.454651010347539852e+01 7.600863397477128558e+01 8.202413724140005513e+01 8.590046748825763245e+01 9.085805717185147046e+01 -9.999000000000000000e+03 -9.999000000000000000e+03 -9.999000000000000000e+03 -9.999000000000000000e+03 -9.999000000000000000e+03 -9.999000000000000000e+03 -9.999000000000000000e+03 -9.999000000000000000e+03 -9.999000000000000000e+03 -9.999000000000000000e+03 -9.999000000000000000e+03 -9.999000000000000000e+03 -9.999000000000000000e+03 -9.999000000000000000e+03 -9.999000000000000000e+03 -9.999000000000000000e+03 -9.999000000000000000e+03 -9.999000000000000000e+03 -9.999000000000000000e+03 -9.999000000000000000e+03 1.072600612991172113e+02 1.030457741085816394e+02 9.822411771506588707e+01 1.006210076114339671e+02 9.472237198197834118e+01 8.744689397002949249e+01 9.361284841340979312e+01 9.773506979727530108e+01 1.019849600941536778e+02 1.029300848988479089e+02 9.907959989872387041e+01 1.096614551154653441e+02 1.081974355258836056e+02 1.045161385678943873e+02 1.006660735218572853e+02 1.055448944230388548e+02 1.137953195381075915e+02 1.136752107408896819e+02 1.123463161545233078e+02 1.126273734169195677e+02 1.151668634263042321e+02 1.208358133678204922e+02 1.263404137846252411e+02 1.305916472015657064e+02 1.304047480449796694e+02 1.295484970035164167e+02 1.312068685476866676e+02 1.353784892409584302e+02 1.411745317019238257e+02 -9.999000000000000000e+03 -9.999000000000000000e+03 -9.999000000000000000e+03 -9.999000000000000000e+03 -9.999000000000000000e+03 -9.999000000000000000e+03 -9.999000000000000000e+03 -9.999000000000000000e+03 -9.999000000000000000e+03 -9.999000000000000000e+03 -9.999000000000000000e+03 -9.999000000000000000e+03 -9.999000000000000000e+03 -9.999000000000000000e+03 -9.999000000000000000e+03 -9.999000000000000000e+03 -9.999000000000000000e+03
-9.999000000000000000e+03 -9.999000000000000000e+03 2.080320833009488268e+01 2.686460521867322626e+01 2.449086888639660486e+01 1.857329265436245080e+01 2.476025278519671247e+01 3.912793779296052321e+01 5.118092339523153811e+01 5.740716984782963550e+01 6.403311864592603797e+01 6.660199473617458921e+01 6.885557638363935951e+01 6.948835892892337540e+01 7.827850916020024385e+01 8.694697908464752345e+01 8.776672103381874024e+01 -9.999000000000000000e+03 -9.999000000000000000e+03 -9.999000000000000000e+03 -9.999000000000000000e+03 -9.999000000000000000e+03 -9.999000000000000000e+03 -9.999000000000000000e+03 -9.999000000000000000e+03 -9.999000000000000000e+03 -9.999000000000000000e+03 -9.999000000000000000e+03 -9.999000000000000000e+03 -9.999000000000000000e+03 -9.999000000000000000e+03 -9.999000000000000000e+03 -9.999000000000000000e+03 -9.999000000000000000e+03 -9.999000000000000000e+03 -9.999000000000000000e+03 -9.999000000000000000e+03 -9.999000000000000000e+03 1.087190763690434920e+02 1.064164856120531226e+02 1.055447013078107119e+02 1.014969178069072200e+02 9.501232903900894655e+01 9.073052295821203472e+01 8.858895585278482088e+01 8.896728642571098078e+01 9.158976277292771329e+01 9.618602721003838951e+01 9.583656232999099700e+01 1.005159299961764816e+02 1.003927268666353143e+02 9.889611211787770628e+01 1.020734998820816628e+02 1.047545448540759594e+02 1.073480445483479286e+02 1.098498662240367736e+02 1.117543504109333981e+02 1.151266159019700268e+02 1.180583603711793046e+02 1.252070782737567356e+02 1.298748066315510243e+02 1.296273605896568313e+02 1.269936851695527480e+02 1.260017826545099382e+02 1.294037293506324602e+02 1.357573408222528144e+02 1.401684945412205252e+02 -9.999000000000000000e+03 -9.999000000000000000e+03 -9.999000000000000000e+03 -9.999000000000000000e+03 -9.999000000000000000e+03 -9.999000000000000000e+03 -9.999000000000000000e+03 -9.999000000000000000e+03 -9.999000000000000000e+03 -9.999000000000000000e+03 -9.999000000000000000e+03 -9.999000000000000000e+03 -9.999000000000000000e+03 -9.999000000000000000e+03 -9.999000000000000000e+03 -9.999000000000000000e+03 -9.999000000000000000e+03
-9.999000000000000000e+03 2.246196507529835174e+01 2.118293578951857370e+01 1.960974421647637200e+01 2.087357567023940419e+01 1.763061911025218720e+01 2.324738147156548251e+01 4.168828683997327289e+01 5.256756107012984103e+01 5.710035331492159827e+01 6.156520929719163604e+01 6.260689074818777300e+01 6.215896775679139097e+01 7.455026633750020437e+01 8.010393618398040871e+01 8.588095991197694445e+01 8.981272009024702641e+01 -9.999000000000000000e+03 -9.999000000000000000e+03 -9.999000000000000000e+03 -9.999000000000000000e+03 -9.999000000000000000e+03 -9.999000000000000000e+03 -9.999000000000000000e+03 -9.999000000000000000e+03 -9.999000000000000000e+03 -9.999000000000000000e+03 -9.999000000000000000e+03 -9.999000000000000000e+03 -9.999000000000000000e+03 -9.999000000000000000e+03 -9.999000000000000000e+03 -9.999000000000000000e+03 -9.999000000000000000e+03 -9.999000000000000000e+03 -9.999000000000000000e+03 -9.999000000000000000e+03 -9.999000000000000000e+03 1.135442590702209031e+02 1.123056437164861023e+02 1.081554636638066995e+02 1.010090467641113747e+02 1.004847991065058039e+02 9.848952385077191707e+01 1.010619113297765779e+02 9.744680007789493459e+01 9.738993590718773419e+01 9.183787081469613156e+01 9.185108626872940363e+01 9.562784542253109521e+01 9.578253998195945940e+01 9.908070752300028516e+01 1.078944382570868896e+02 1.114264755851079656e+02 1.108325682682049660e+02 1.122947478004590636e+02 1.156056022075634928e+02 1.204082842546569623e+02 1.235236575544159763e+02 1.277254247694750404e+02 1.299136612760832179e+02 1.256370354789932833e+02 1.233041540613930067e+02 1.246962597947359228e+02 1.292132515130301726e+02 1.353495505801204786e+02 -9.999000000000000000e+03 -9.999000000000000000e+03 -9.999000000000000000e+03 -9.999000000000000000e+03 -9.999000000000000000e+03 -9.999000000000000000e+03 -9.999000000000000000e+03 -9.999000000000000000e+03 -9.999000000000000000e+03 -9.999000000000000000e+03 -9.999000000000000000e+03 -9.999000000000000000e+03 -9.999000000000000000e+03 -9.999000000000000000e+03 -9.999000000000000000e+03 -9.999000000000000000e+03 -9.999000000000000000e+03 -9.999000000000000000e+03
-9.999000000000000000e+03 -9.999000000000000000e+03 2.244729826169410813e+01 1.740341896979621694e+01 1.759849890135687644e+01 1.802960744218262334e+01 2.288497617144403762e+01 4.405407618922072288e+01 5.085146658885832238e+01 5.364937979264221468e+01 5.893821759419213180e+01 5.486808588232697304e+01 6.938535086010374187e+01 7.564687890071616039e+01 8.488065989667218503e+01 8.718698456759692306e+01 -9.999000000000000000e+03 -9.999000000000000000e+03 -9.999000000000000000e+03 -9.999000000000000000e+03 -9.999000000000000000e+03 -9.999000000000000000e+03 -9.999000000000000000e+03 -9.999000000000000000e+03 -9.999000000000000000e+03 -9.999000000000000000e+03 -9.999000000000000000e+03 -9.999000000000000000e+03 -9.999000000000000000e+03 -9.999000000000000000e+03 -9.999000000000000000e+03 -9.999000000000000000e+03 -9.999000000000000000e+03 -9.999000000000000000e+03 -9.999000000000000000e+03 -9.999000000000000000e+03 -9.999000000000000000e+03 -9.999000000000000000e+03 1.183193352675197474e+02 1.142471978455132273e+02 1.084378896324295596e+02 1.056466680160701230e+02 1.071450325334297133e+02 1.048000947537409502e+02 1.061256797077951717e+02 9.904658057355999290e+01 1.014249521803671854e+02 9.367873944173808809e+01 9.384731614735633798e+01 9.713934307141256852e+01 9.779612230181547261e+01 1.001211332942552161e+02 1.030725037923257190e+02 1.078515953071547813e+02 1.122542306090097384e+02 1.150135305553569651e+02 1.200662502677720909e+02 1.246778201605387153e+02 1.301160639592944221e+02 1.304883738037819683e+02 1.268384328948407926e+02 1.219589331765201194e+02 1.231871361550765585e+02 1.288034841673006667e+02 1.336139928464213256e+02 1.345409799710608638e+02 -9.999000000000000000e+03 -9.999000000000000000e+03 -9.999000000000000000e+03 -9.999000000000000000e+03 -9.999000000000000000e+03 -9.999000000000000000e+03 -9.999000000000000000e+03 -9.999000000000000000e+03 -9.999000000000000000e+03 -9.999000000000000000e+03 -9.999000000000000000e+03 -9.999000000000000000e+03 -9.999000000000000000e+03 -9.999000000000000000e+03 -9.999000000000000000e+03 -9.999000000000000000e+03 -9.999000000000000000e+03 -9.999000000000000000e+03
-9.999000000000000000e+03 -9.999000000000000000e+03 1.611580984751804380e+01 2.056970384271848218e+01 2.058819565738677682e+01 2.004922747712286224e+01 2.348816251182783432e+01 4.150692204809970320e+01 4.897947688690349111e+01 4.815244711684835011e+01 5.101742311147742015e+01 6.072722614648792216e+01 6.973370444506086585e+01 7.963034180505222537e+01 8.470171027742151182e+01 8.874617323796044843e+01 -9.999000000000000000e+03 -9.999000000000000000e+03 -9.999000000000000000e+03 -9.999000000000000000e+03 -9.999000000000000000e+03 -9.999000000000000000e+03 -9.999000000000000000e+03 -9.999000000000000000e+03 -9.999000000000000000e+03 -9.999000000000000000e+03 -9.999000000000000000e+03 -9.999000000000000000e+03 -9.999000000000000000e+03 -9.999000000000000000e+03 -9.999000000000000000e+03 -9.999000000000000000e+03 -9.999000000000000000e+03 -9.999000000000000000e+03 -9.999000000000000000e+03 -9.999000000000000000e+03 -9.999000000000000000e+03 -9.999000000000000000e+03 1.201845577510569285e+02 1.163030430215140854e+02 1.107835223864551466e+02 1.131659000706477514e+02 1.080440796896115643e+02 1.114771443279414882e+02 1.086833389037598323e+02 1.013504952044193175e+02 1.046640330348812284e+02 1.040398725441157239e+02 9.941932585571352377e+01 1.020588791388766197e+02 1.048308218117250732e+02 1.060979937781765159e+02 1.048379839139310690e+02 1.064624126876680634e+02 1.095649307860597332e+02 1.129221316881162238e+02 1.205474456633735514e+02 1.278599328224194664e+02 1.301396883702475407e+02 1.282102877549380935e+02 1.232846954930093659e+02 1.216119712062862419e+02 1.260522481428595114e+02 1.351678578782533293e+02 -9.999000000000000000e+03 -9.999000000000000000e+03 -9.999000000000000000e+03 -9.999000000000000000e+03 -9.999000000000000000e+03 -9.999000000000000000e+03 -9.999000000000000000e+03 -9.999000000000000000e+03 -9.999000000000000000e+03 -9.999000000000000000e+03 -9.999000000000000000e+03 -9.999000000000000000e+03 -9.999000000000000000e+03 -9.999000000000000000e+03 -9.999000000000000000e+03 -9.999000000000000000e+03 -9.999000000000000000e+03 -9.999000000000000000e+03 -9.999000000000000000e+03 -9.999000000000000000e+03
-9.999000000000000000e+03 -9.999000000000000000e+03 -9.999000000000000000e+03 -9.999000000000000000e+03 2.255681473943662496e+01 2.159873546458423732e+01 2.238333254552056317e+01 2.741529316778920133e+01 3.547222074956262361e+01 3.613494297116646692e+01 4.719190363710744407e+01 6.339935880846032035e+01 7.231055460387200640e+01 8.271704706638813320e+01 8.585204997665471183e+01 -9.999000000000000000e+03 -9.999000000000000000e+03 -9.999000000000000000e+03 -9.999000000000000000e+03 -9.999000000000000000e+03 -9.999000000000000000e+03 -9.999000000000000000e+03 -9.999000000000000000e+03 -9.999000000000000000e+03 -9.999000000000000000e+03 -9.999000000000000000e+03 -9.999000000000000000e+03 -9.999000000000000000e+03 -9.999000000000000000e+03 -9.999000000000000000e+03 -9.999000000000000000e+03 -9.999000000000000000e+03 -9.999000000000000000e+03 -9.999000000000000000e+03 -9.999000000000000000e+03 -9.999000000000000000e+03 -9.999000000000000000e+03 1.228142416217379349e+02 1.214630692042205453e+02 1.184634745339431134e+02 1.207001090881851439e+02 1.208162833757335051e+02 1.193429416451819804e+02 1.143362088093541047e+02 1.081838301397056910e+02 1.053598496447019670e+02 1.109268271681934692e+02 1.100842173816116230e+02 1.035122602732832746e+02 1.062362704870240009e+02 1.135991605257440256e+02 1.138437169325702314e+02 1.092962649644030364e+02 1.104839442751959240e+02 1.135723271268918921e+02 1.132758655066298701e+02 1.179158020743065123e+02 1.275880836157401319e+02 1.257617601564580525e+02 1.213449399832064444e+02 1.208112602912152340e+02 1.234227542022949677e+02 1.315755313760585068e+02 1.366118426309272138e+02 -9.999000000000000000e+03 -9.999000000000000000e+03 -9.999000000000000000e+03 -9.999000000000000000e+03 -9.999000000000000000e+03 -9.999000000000000000e+03 -9.999000000000000000e+03 -9.999000000000000000e+03 -9.999000000000000000e+03 -9.999000000000000000e+03 -9.999000000000000000e+03 -9.999000000000000000e+03 -9.999000000000000000e+03 -9.999000000000000000e+03 -9.999000000000000000e+03 -9.999000000000000000e+03 -9.999000000000000000e+03 -9.999000000000000000e+03 -9.999000000000000000e+03 -9.999000000000000000e+03
-9.999000000000000000e+03 -9.999000000000000000e+03 -9.999000000000000000e+03 -9.999000000000000000e+03 -9.999000000000000000e+03 2.125740533134197818e+01 2.126863951152571630e+01 2.410647351275598282e+01 3.027619824996685693e+01 4.174166046242891781e+01 5.549363734389763181e+01 6.768757763159607066e+01 7.620429771037615296e+01 8.522979483269610057e+01 -9.999000000000000000e+03 -9.999000000000000000e+03 -9.999000000000000000e+03 -9.999000000000000000e+03 -9.999000000000000000e+03 -9.999000000000000000e+03 -9.999000000000000000e+03 -9.999000000000000000e+03 -9.999000000000000000e+03 -9.999000000000000000e+03 -9.999000000000000000e+03 -9.999000000000000000e+03 -9.999000000000000000e+03 -9.999000000000000000e+03 -9.999000000000000000e+03 -9.999000000000000000e+03 -9.999000000000000000e+03 -9.999000000000000000e+03 -9.999000000000000000e+03 -9.999000000000000000e+03 -9.999000000000000000e+03 -9.999000000000000000e+03 1.230173777149886547e+02 1.228475409951027899e+02 1.224213148022926987e+02 1.232165352835188799e+02 1.273823149257472096e+02 1.320989047446462052e+02 1.281752487730044550e+02 1.181379746568802318e+02 1.126892355567821937e+02 1.124213073794206394e+02 1.128399136199160466e+02 1.089383434504472490e+02 1.044394150088951250e+02 1.117395032153350769e+02 1.181378344124987478e+02 1.174137736787003661e+02 1.120162699792740568e+02 1.135650763438151216e+02 1.175123962008604224e+02 1.178166423020440305e+02 1.171872456139317933e+02 1.218652482944563218e+02 1.207501321097181801e+02 1.204486287700226086e+02 1.244734468862552319e+02 1.287363209786858533e+02 1.311154248042334416e+02 1.344623885566070101e+02 -9.999000000000000000e+03 -9.999000000000000000e+03 -9.999000000000000000e+03 -9.999000000000000000e+03 -9.999000000000000000e+03 -9.999000000000000000e+03 -9.999000000000000000e+03 -9.999000000000000000e+03 -9.999000000000000000e+03 -9.999000000000000000e+03 -9.999000000000000000e+03 -9.999000000000000000e+03 -9.999000000000000000e+03 -9.999000000000000000e+03 -9.999000000000000000e+03 -9.999000000000000000e+03 -9.999000000000000000e+03 -9.999000000000000000e+03 -9.999000000000000000e+03 -9.999000000000000000e+03
-9.999000000000000000e+03 -9.999000000000000000e+03 -9.999000000000000000e+03 -9.999000000000000000e+03 -9.999000000000000000e+03 2.125754007852295047e+01 2.165387838836839052e+01 2.334534701579585203e+01 2.697843192443976434e+01 4.527396872929654847e+01 6.089307672746745226e+01 7.240251167739643279e+01 8.032069629827429935e+01 -9.999000000000000000e+03 -9.999000000000000000e+03 -9.999000000000000000e+03 -9.999000000000000000e+03 -9.999000000000000000e+03 -9.999000000000000000e+03 -9.999000000000000000e+03 -9.999000000000000000e+03 -9.999000000000000000e+03 -9.999000000000000000e+03 -9.999000000000000000e+03 -9.999000000000000000e+03 -9.999000000000000000e+03 -9.999000000000000000e+03 -9.999000000000000000e+03 -9.999000000000000000e+03 -9.999000000000000000e+03 -9.999000000000000000e+03 -9.999000000000000000e+03 -9.999000000000000000e+03 -9.999000000000000000e+03 -9.999000000000000000e+03 -9.999000000000000000e+03 -9.999000000000000000e+03 -9.999000000000000000e+03 -9.999000000000000000e+03 -9.999000000000000000e+03 -9.999000000000000000e+03 1.317539894824290911e+02 1.251350098344545358e+02 1.176318888027076213e+02 1.170449009635791242e+02 1.134883813902518028e+02 1.097547492723805505e+02 1.078218820148601225e+02 1.092764988934811186e+02 1.180615553816074623e+02 1.208915330684593812e+02 1.180880926466485619e+02 1.131652062712862374e+02 1.146502279651346754e+02 1.201935547156714392e+02 1.231140675746230642e+02 1.197703918575450786e+02 1.191164077914621799e+02 1.202232733872573505e+02 1.226227172683349380e+02 1.276298504595018954e+02 1.315595591445282651e+02 1.340257577385635557e+02 -9.999000000000000000e+03 -9.999000000000000000e+03 -9.999000000000000000e+03 -9.999000000000000000e+03 -9.999000000000000000e+03 -9.999000000000000000e+03 -9.999000000000000000e+03 -9.999000000000000000e+03 -9.999000000000000000e+03 -9.999000000000000000e+03 -9.999000000000000000e+03 -9.999000000000000000e+03 -9.999000000000000000e+03 -9.999000000000000000e+03 -9.999000000000000000e+03 -9.999000000000000000e+03 -9.999000000000000000e+03 -9.999000000000000000e+03 -9.999000000000000000e+03 -9.999000000000000000e+03 -9.999000000000000000e+03
-9.999000000000000000e+03 -9.999000000000000000e+03 -9.999000000000000000e+03 -9.999000000000000000e+03 -9.999000000000000000e+03 -9.999000000000000000e+03 -9.999000000000000000e+03 2.391747922707842022e+01 2.344850990150339243e+01 4.599377274469086530e+01 6.178052726478141210e+01 7.264692307831239759e+01 7.916379133961581260e+01 -9.999000000000000000e+03 -9.999000000000000000e+03 -9.999000000000000000e+03 -9.999000000000000000e+03 -9.999000000000000000e+03 -9.999000000000000000e+03 -9.999000000000000000e+03 -9.999000000000000000e+03 -9.999000000000000000e+03 -9.999000000000000000e+03 -9.999000000000000000e+03 -9.999000000000000000e+03 -9.999000000000000000e+03 -9.999000000000000000e+03 -9.999000000000000000e+03 -9.999000000000000000e+03 -9.999000000000000000e+03 -9.999000000000000000e+03 -9.999000000000000000e+03 -9.999000000000000000e+03 -9.999000000000000000e+03 -9.999000000000000000e+03 -9.999000000000000000e+03 -9.999000000000000000e+03 -9.999000000000000000e+03 -9.999000000000000000e+03 -9.999000000000000000e+03 -9.999000000000000000e+03 1.237781609160508509e+02 1.162353534769383003e+02 1.144710934845859924e+02 1.134475453627785981e+02 1.106333065678168310e+02 1.082584211637788627e+02 1.098744327324147179e+02 1.131772347004588255e+02 1.200184100539479033e+02 1.208363745431576461e+02 1.186197574622603383e+02 1.139767058470689705e+02 1.149316212401236612e+02 1.220502905456590099e+02 1.239466172995962836e+02 1.230717667562334583e+02 1.216015682341707276e+02 1.253903379943258045e+02 1.284435882415174888e+02 1.319334976881153239e+02 1.340275904804057632e+02 -9.999000000000000000e+03 -9.999000000000000000e+03 -9.999000000000000000e+03 -9.999000000000000000e+03 -9.999000000000000000e+03 -9.999000000000000000e+03 -9.999000000000000000e+03 -9.999000000000000000e+03 -9.999000000000000000e+03 -9.999000000000000000e+03 -9.999000000000000000e+03 -9.999000000000000000e+03 -9.999000000000000000e+03 -9.999000000000000000e+03 -9.999000000000000000e+03 -9.999000000000000000e+03 -9.999000000000000000e+03 -9.999000000000000000e+03 -9.999000000000000000e+03 -9.999000000000000000e+03 -9.999000000000000000e+03 -9.999000000000000000e+03
-9.999000000000000000e+03 -9.999000000000000000e+03 -9.999000000000000000e+03 -9.999000000000000000e+03 -9.999000000000000000e+03 -9.999000000000000000e+03 -9.999000000000000000e+03 2.383891378800400673e+01 2.341913597672282421e+01 3.858865792705857700e+01 5.993501469630602685e+01 7.102974190300736268e+01 -9.999000000000000000e+03 -9.999000000000000000e+03 -9.999000000000000000e+03 -9.999000000000000000e+03 -9.999000000000000000e+03 -9.999000000000000000e+03 -9.999000000000000000e+03 -9.999000000000000000e+03 -9.999000000000000000e+03 -9.999000000000000000e+03 -9.999000000000000000e+03 -9.999000000000000000e+03 -9.999000000000000000e+03 -9.999000000000000000e+03 -9.999000000000000000e+03 -9.999000000000000000e+03 -9.999000000000000000e+03 -9.999000000000000000e+03 -9.999000000000000000e+03 -9.999000000000000000e+03 -9.999000000000000000e+03 -9.999000000000000000e+03 -9.999000000000000000e+03 -9.999000000000000000e+03 -9.999000000000000000e+03 -9.999000000000000000e+03 -9.999000000000000000e+03 -9.999000000000000000e+03 -9.999000000000000000e+03 1.161770652444161556e+02 1.139023400830511576e+02 1.119542802509359518e+02 1.108275495356142528e+02 1.101922341375960173e+02 1.111753082687549892e+02 1.137216126387071284e+02 1.178807425474247168e+02 1.223886551325821159e+02 1.224562350773570074e+02 1.198479297672551382e+02 1.147099626505282401e+02 1.177356992020113040e+02 1.249400983988374065e+02 1.274720434203306638e+02 1.260792512108431254e+02 1.280208649905866309e+02 1.320419518449571399e+02 1.335211445671156696e+02 1.338607827200799534e+02 -9.999000000000000000e+03 -9.999000000000000000e+03 -9.999000000000000000e+03 -9.999000000000000000e+03 -9.999000000000000000e+03 -9.999000000000000000e+03 -9.999000000000000000e+03 -9.999000000000000000e+03 -9.999000000000000000e+03 -9.999000000000000000e+03 -9.999000000000000000e+03 -9.999000000000000000e+03 -9.999000000000000000e+03 -9.999000000000000000e+03 -9.999000000000000000e+03 -9.999000000000000000e+03 -9.999000000000000000e+03 -9.999000000000000000e+03 -9.999000000000000000e+03 -9.999000000000000000e+03 -9.999000000000000000e+03 -9.999000000000000000e+03 -9.999000000000000000e+03
-9.999000000000000000e+03 -9.999000000000000000e+03 -9.999000000000000000e+03 -9.999000000000000000e+03 -9.999000000000000000e+03 -9.999000000000000000e+03 -9.999000000000000000e+03 2.418566779642547360e+01 2.395518873830705076e+01 2.351477267463140208e+01 5.795208144008752527e+01 -9.999000000000000000e+03 -9.999000000000000000e+03 -9.999000000000000000e+03 -9.999000000000000000e+03 -9.999000000000000000e+03 -9.999000000000000000e+03 -9.999000000000000000e+03 -9.999000000000000000e+03 -9.999000000000000000e+03 -9.999000000000000000e+03 -9.999000000000000000e+03 -9.999000000000000000e+03 -9.999000000000000000e+03 -9.999000000000000000e+03 -9.999000000000000000e+03 -9.999000000000000000e+03 -9.999000000000000000e+03 -9.999000000000000000e+03 -9.999000000000000000e+03 -9.999000000000000000e+03 -9.999000000000000000e+03 -9.999000000000000000e+03 -9.999000000000000000e+03 -9.999000000000000000e+03 -9.999000000000000000e+03 -9.999000000000000000e+03 -9.999000000000000000e+03 -9.999000000000000000e+03 -9.999000000000000000e+03 -9.999000000000000000e+03 1.164379081463180654e+02 1.157204340216122063e+02 1.146148041742757613e+02 1.154187231419879254e+02 1.125965625883015377e+02 1.143706955346905261e+02 1.184521773538535285e+02 1.219154085936122556e+02 1.251553562112817986e+02 1.248177800931070038e+02 1.210212097299385618e+02 1.163471544543251497e+02 1.225683296221266403e+02 1.267220610630946283e+02 1.295855213119253619e+02 1.309335170899246350e+02 1.335693578305987046e+02 1.345203292952467393e+02 1.356923363548469297e+02 -9.999000000000000000e+03 -9.999000000000000000e+03 -9.999000000000000000e+03 -9.999000000000000000e+03 -9.999000000000000000e+03 -9.999000000000000000e+03 -9.999000000000000000e+03 -9.999000000000000000e+03 -9.999000000000000000e+03 -9.999000000000000000e+03 -9.999000000000000000e+03 -9.999000000000000000e+03 -9.999000000000000000e+03 -9.999000000000000000e+03 -9.999000000000000000e+03 -9.999000000000000000e+03 -9.999000000000000000e+03 -9.999000000000000000e+03 -9.999000000000000000e+03 -9.999000000000000000e+03 -9.999000000000000000e+03 -9.999000000000000000e+03 -9.999000000000000000e+03 -9.999000000000000000e+03
-9.999000000000000000e+03 -9.999000000000000000e+03 -9.999000000000000000e+03 -9.999000000000000000e+03 -9.999000000000000000e+03 -9.999000000000000000e+03 -9.999000000000000000e+03 -9.999000000000000000e+03 2.405619223344518076e+01 2.344638796174535855e+01 4.764279149729117790e+01 -9.999000000000000000e+03 -9.999000000000000000e+03 -9.999000000000000000e+03 -9.999000000000000000e+03 -9.999000000000000000e+03 -9.999000000000000000e+03 -9.999000000000000000e+03 -9.999000000000000000e+03 -9.999000000000000000e+03 -9.999000000000000000e+03 -9.999000000000000000e+03 -9.999000000000000000e+03 -9.999000000000000000e+03 -9.999000000000000000e+03 -9.999000000000000000e+03 -9.999000000000000000e+03 -9.999000000000000000e+03 -9.999000000000000000e+03 -9.999000000000000000e+03 -9.999000000000000000e+03 -9.999000000000000000e+03 -9.999000000000000000e+03 -9.999000000000000000e+03 -9.999000000000000000e+03 -9.999000000000000000e+03 -9.999000000000000000e+03 -9.999000000000000000e+03 -9.999000000000000000e+03 -9.999000000000000000e+03 -9.999000000000000000e+03 1.184700767826159762e+02 1.200486082166130046e+02 1.197689269878254379e+02 1.210207189227212723e+02 1.153957201033871058e+02 1.163081985799747429e+02 1.222465735520340360e+02 1.246261751699575910e+02 1.254063809579563014e+02 1.236333284682975346e+02 1.186609658535549983e+02 1.190351314937756655e+02 1.267200482140067521e+02 1.290089233275258493e+02 1.326274734308801158e+02 1.351511704925560480e+02 1.358917398516008745e+02 -9.999000000000000000e+03 -9.999000000000000000e+03 -9.999000000000000000e+03 -9.999000000000000000e+03 -9.999000000000000000e+03 -9.999000000000000000e+03 -9.999000000000000000e+03 -9.999000000000000000e+03 -9.999000000000000000e+03 -9.999000000000000000e+03 -9.999000000000000000e+03 -9.999000000000000000e+03 -9.999000000000000000e+03 -9.999000000000000000e+03 -9.999000000000000000e+03 -9.999000000000000000e+03 -9.999000000000000000e+03 -9.999000000000000000e+03 -9.999000000000000000e+03 -9.999000000000000000e+03 -9.999000000000000000e+03 -9.999000000000000000e+03 -9.999000000000000000e+03 -9.999000000000000000e+03 -9.999000000000000000e+03 -9.999000000000000000e+03
-9.999000000000000000e+03 -9.999000000000000000e+03 -9.999000000000000000e+03 -9.999000000000000000e+03 -9.999000000000000000e+03 -9.999000000000000000e+03 -9.999000000000000000e+03 -9.999000000000000000e+03 2.428551814453609836e+01 2.436450931118449503e+01 3.218737392150708132e+01 -9.999000000000000000e+03 -9.999000000000000000e+03 -9.999000000000000000e+03 -9.999000000000000000e+03 -9.999000000000000000e+03 -9.999000000000000000e+03 -9.999000000000000000e+03 -9.999000000000000000e+03 -9.999000000000000000e+03 -9.999000000000000000e+03 -9.999000000000000000e+03 -9.999000000000000000e+03 -9.999000000000000000e+03 -9.999000000000000000e+03 -9.999000000000000000e+03 -9.999000000000000000e+03 -9.999000000000000000e+03 -9.999000000000000000e+03 -9.999000000000000000e+03 -9.999000000000000000e+03 -9.999000000000000000e+03 -9.999000000000000000e+03 -9.999000000000000000e+03 -9.999000000000000000e+03 -9.999000000000000000e+03 -9.999000000000000000e+03 -9.999000000000000000e+03 -9.999000000000000000e+03 -9.999000000000000000e+03 -9.999000000000000000e+03 -9.999000000000000000e+03 1.244896075448450858e+02 1.243837178329259530e+02 1.214850160089621198e+02 1.171859285399127657e+02 1.162416484889889574e+02 1.208212749078005999e+02 1.276053452713350822e+02 1.254853816496328420e+02 1.212057348430952288e+02 1.209893204766732424e+02 1.235706685329453336e+02 1.287527849725871647e+02 1.315649323861208018e+02 1.350323246043683127e+02 1.368046072845587275e+02 -9.999000000000000000e+03 -9.999000000000000000e+03 -9.999000000000000000e+03 -9.999000000000000000e+03 -9.999000000000000000e+03 -9.999000000000000000e+03 -9.999000000000000000e+03 -9.999000000000000000e+03 -9.999000000000000000e+03 -9.999000000000000000e+03 -9.999000000000000000e+03 -9.999000000000000000e+03 -9.999000000000000000e+03 -9.999000000000000000e+03 -9.999000000000000000e+03 -9.999000000000000000e+03 -9.999000000000000000e+03 -9.999000000000000000e+03 -9.999000000000000000e+03 -9.999000000000000000e+03 -9.999000000000000000e+03 -9.999000000000000000e+03 -9.999000000000000000e+03 -9.999000000000000000e+03 -9.999000000000000000e+03 -9.999000000000000000e+03 -9.999000000000000000e+03
-9.999000000000000000e+03 -9.999000000000000000e+03 -9.999000000000000000e+03 -9.999000000000000000e+03 -9.999000000000000000e+03 -9.999000000000000000e+03 -9.999000000000000000e+03 -9.999000000000000000e+03 2.474844446086562400e+01 2.438488183685609911e+01 2.532947357551558554e+01 -9.999000000000000000e+03 -9.999000000000000000e+03 -9.999000000000000000e+03 -9.999000000000000000e+03 -9.999000000000000000e+03 -9.999000000000000000e+03 -9.999000000000000000e+03 -9.999000000000000000e+03 -9.999000000000000000e+03 -9.999000000000000000e+03 -9.999000000000000000e+03 -9.999000000000000000e+03 -9.999000000000000000e+03 -9.999000000000000000e+03 -9.999000000000000000e+03 -9.999000000000000000e+03 -9.999000000000000000e+03 -9.999000000000000000e+03 -9.999000000000000000e+03 -9.999000000000000000e+03 -9.999000000000000000e+03 -9.999000000000000000e+03 -9.999000000000000000e+03 -9.999000000000000000e+03 -9.999000000000000000e+03 -9.999000000000000000e+03 -9.999000000000000000e+03 -9.999000000000000000e+03 -9.999000000000000000e+03 -9.999000000000000000e+03 -9.999000000000000000e+03 1.270221120165784328e+02 1.252374216238680162e+02 1.212662814707976509e+02 1.181310643304913981e+02 1.165312763004404673e+02 1.213871780041402388e+02 1.295186033689925011e+02 1.280817587896958401e+02 1.249851557693261981e+02 1.252006694742897821e+02 1.276433434446499859e+02 1.306182085723345949e+02 1.338038161033667279e+02 1.361798179270304843e+02 -9.999000000000000000e+03 -9.999000000000000000e+03 -9.999000000000000000e+03 -9.999000000000000000e+03 -9.999000000000000000e+03 -9.999000000000000000e+03 -9.999000000000000000e+03 -9.999000000000000000e+03 -9.999000000000000000e+03 -9.999000000000000000e+03 -9.999000000000000000e+03 -9.999000000000000000e+03 -9.999000000000000000e+03 -9.999000000000000000e+03 -9.999000000000000000e+03 -9.999000000000000000e+03 -9.999000000000000000e+03 -9.999000000000000000e+03 -9.999000000000000000e+03 -9.999000000000000000e+03 -9.999000000000000000e+03 -9.999000000000000000e+03 -9.999000000000000000e+03 -9.999000000000000000e+03 -9.999000000000000000e+03 -9.999000000000000000e+03 -9.999000000000000000e+03 -9.999000000000000000e+03
-9.999000000000000000e+03 -9.999000000000000000e+03 -9.999000000000000000e+03 -9.999000000000000000e+03 -9.999000000000000000e+03 -9.999000000000000000e+03 -9.999000000000000000e+03 -9.999000000000000000e+03 -9.999000000000000000e+03 -9.999000000000000000e+03 -9.999000000000000000e+03 -9.999000000000000000e+03 -9.999000000000000000e+03 -9.999000000000000000e+03 -9.999000000000000000e+03 -9.999000000000000000e+03 -9.999000000000000000e+03 -9.999000000000000000e+03 -9.999000000000000000e+03 -9.999000000000000000e+03 -9.999000000000000000e+03 -9.999000000000000000e+03 -9.999000000000000000e+03 -9.999000000000000000e+03 -9.999000000000000000e+03 -9.999000000000000000e+03 -9.999000000000000000e+03 -9.999000000000000000e+03 -9.999000000000000000e+03 -9.999000000000000000e+03 -9.999000000000000000e+03 -9.999000000000000000e+03 -9.999000000000000000e+03 -9.999000000000000000e+03 -9.999000000000000000e+03 -9.999000000000000000e+03 -9.999000000000000000e+03 -9.999000000000000000e+03 -9.999000000000000000e+03 -9.999000000000000000e+03 -9.999000000000000000e+03 -9.999000000000000000e+03 1.268587654168794217e+02 1.244710532957080460e+02 1.203921276777396798e+02 1.173889729634395849e+02 1.176294861797931333e+02 1.219447536168001847e+02 1.302986319171810692e+02 1.311952582156749543e+02 1.294550689199338933e+02 1.289677422810811152e+02 1.304827584616567719e+02 1.332034060255109011e+02 1.358053555034492206e+02 -9.999000000000000000e+03 -9.999000000000000000e+03 -9.999000000000000000e+03 -9.999000000000000000e+03 -9.999000000000000000e+03 -9.999000000000000000e+03 -9.999000000000000000e+03 -9.999000000000000000e+03 -9.999000000000000000e+03 -9.999000000000000000e+03 -9.999000000000000000e+03 -9.999000000000000000e+03 -9.999000000000000000e+03 -9.999000000000000000e+03 -9.999000000000000000e+03 -9.999000000000000000e+03 -9.999000000000000000e+03 -9.999000000000000000e+03 -9.999000000000000000e+03 -9.999000000000000000e+03 -9.999000000000000000e+03 -9.999000000000000000e+03 -9.999000000000000000e+03 -9.999000000000000000e+03 -9.999000000000000000e+03 -9.999000000000000000e+03 -9.999000000000000000e+03 -9.999000000000000000e+03 -9.999000000000000000e+03
-9.999000000000000000e+03 -9.999000000000000000e+03 -9.999000000000000000e+03 -9.999000000000000000e+03 -9.999000000000000000e+03 -9.999000000000000000e+03 -9.999000000000000000e+03 -9.999000000000000000e+03 -9.999000000000000000e+03 -9.999000000000000000e+03 -9.999000000000000000e+03 -9.999000000000000000e+03 -9.999000000000000000e+03 -9.999000000000000000e+03 -9.999000000000000000e+03 -9.999000000000000000e+03 -9.999000000000000000e+03 -9.999000000000000000e+03 -9.999000000000000000e+03 -9.999000000000000000e+03 -9.999000000000000000e+03 -9.999000000000000000e+03 -9.999000000000000000e+03 -9.999000000000000000e+03 -9.999000000000000000e+03 -9.999000000000000000e+03 -9.999000000000000000e+03 -9.999000000000000000e+03 -9.999000000000000000e+03 -9.999000000000000000e+03 -9.999000000000000000e+03 -9.999000000000000000e+03 -9.999000000000000000e+03 -9.999000000000000000e+03 -9.999000000000000000e+03 -9.999000000000000000e+03 -9.999000000000000000e+03 -9.999000000000000000e+03 -9.999000000000000000e+03 -9.999000000000000000e+03 -9.999000000000000000e+03 -9.999000000000000000e+03 1.270590486970768040e+02 1.238386154464404143e+02 1.206285827197338989e+02 1.188280490592193530e+02 1.210799855989997837e+02 1.246497814240004374e+02 1.315513599018909758e+02 1.328329210725658811e+02 1.313762273393790281e+02 1.320738289113478743e+02 1.339878467828102373e+02 1.359165474074893041e+02 -9.999000000000000000e+03 -9.999000000000000000e+03 -9.999000000000000000e+03 -9.999000000000000000e+03 -9.999000000000000000e+03 -9.999000000000000000e+03 -9.999000000000000000e+03 -9.999000000000000000e+03 -9.999000000000000000e+03 -9.999000000000000000e+03 -9.999000000000000000e+03 -9.999000000000000000e+03 -9.999000000000000000e+03 -9.999000000000000000e+03 -9.999000000000000000e+03 -9.999000000000000000e+03 -9.999000000000000000e+03 -9.999000000000000000e+03 -9.999000000000000000e+03 -9.999000000000000000e+03 -9.999000000000000000e+03 -9.999000000000000000e+03 -9.999000000000000000e+03 -9.999000000000000000e+03 -9.999000000000000000e+03 -9.999000000000000000e+03 -9.999000000000000000e+03 -9.999000000000000000e+03 -9.999000000000000000e+03 -9.999000000000000000e+03
-9.999000000000000000e+03 -9.999000000000000000e+03 -9.999000000000000000e+03 -9.999000000000000000e+03 -9.999000000000000000e+03 -9.999000000000000000e+03 -9.999000000000000000e+03 -9.999000000000000000e+03 -9.999000000000000000e+03 -9.999000000000000000e+03 -9.999000000000000000e+03 -9.999000000000000000e+03 -9.999000000000000000e+03 -9.999000000000000000e+03 -9.999000000000000000e+03 -9.999000000000000000e+03 -9.999000000000000000e+03 -9.999000000000000000e+03 -9.999000000000000000e+03 -9.999000000000000000e+03 -9.999000000000000000e+03 -9.999000000000000000e+03 -9.999000000000000000e+03 -9.999000000000000000e+03 -9.999000000000000000e+03 -9.999000000000000000e+03 -9.999000000000000000e+03 -9.999000000000000000e+03 -9.999000000000000000e+03 -9.999000000000000000e+03 -9.999000000000000000e+03 -9.999000000000000000e+03 -9.999000000000000000e+03 -9.999000000000000000e+03 -9.999000000000000000e+03 -9.999000000000000000e+03 -9.999000000000000000e+03 -9.999000000000000000e+03 -9.999000000000000000e+03 -9.999000000000000000e+03 -9.999000000000000000e+03 -9.999000000000000000e+03 1.275025270739606071e+02 1.244111735517670638e+02 1.208260395579690680e+02 1.210658043716720300e+02 1.243030409576574016e+02 1.271100423806957025e+02 1.317036331051671993e+02 1.333013413848327673e+02 1.338103502284226067e+02 1.350485949904917504e+02 1.363735890144467646e+02 -9.999000000000000000e+03 -9.999000000000000000e+03 -9.999000000000000000e+03 -9.999000000000000000e+03 -9.999000000000000000e+03 -9.999000000000000000e+03 -9.999000000000000000e+03 -9.999000000000000000e+03 -9.999000000000000000e+03 -9.999000000000000000e+03 -9.999000000000000000e+03 -9.999000000000000000e+03 -9.999000000000000000e+03 -9.999000000000000000e+03 -9.999000000000000000e+03 -9.999000000000000000e+03 -9.999000000000000000e+03 -9.999000000000000000e+03 -9.999000000000000000e+03 -9.999000000000000000e+03 -9.999000000000000000e+03 -9.999000000000000000e+03 -9.999000000000000000e+03 -9.999000000000000000e+03 -9.999000000000000000e+03 -9.999000000000000000e+03 -9.999000000000000000e+03 -9.999000000000000000e+03 -9.999000000000000000e+03 -9.999000000000000000e+03 -9.999000000000000000e+03
-9.999000000000000000e+03 -9.999000000000000000e+03 -9.999000000000000000e+03 -9.999000000000000000e+03 -9.999000000000000000e+03 -9.999000000000000000e+03 -9.999000000000000000e+03 -9.999000000000000000e+03 -9.999000000000000000e+03 -9.999000000000000000e+03 -9.999000000000000000e+03 -9.999000000000000000e+03 -9.999000000000000000e+03 -9.999000000000000000e+03 -9.999000000000000000e+03 -9.999000000000000000e+03 -9.999000000000000000e+03 -9.999000000000000000e+03 -9.999000000000000000e+03 -9.999000000000000000e+03 -9.999000000000000000e+03 -9.999000000000000000e+03 -9.999000000000000000e+03 -9.999000000000000000e+03 -9.999000000000000000e+03 -9.999000000000000000e+03 -9.999000000000000000e+03 -9.999000000000000000e+03 -9.999000000000000000e+03 -9.999000000000000000e+03 -9.999000000000000000e+03 -9.999000000000000000e+03 -9.999000000000000000e+03 -9.999000000000000000e+03 -9.999000000000000000e+03 -9.999000000000000000e+03 -9.999000000000000000e+03 -9.999000000000000000e+03 -9.999000000000000000e+03 -9.999000000000000000e+03 -9.999000000000000000e+03 -9.999000000000000000e+03 1.279388758196457729e+02 1.243294452967119383e+02 1.229615442967515833e+02 1.252836051711299206e+02 1.285981648192461080e+02 1.314101183578988241e+02 1.323353827133997243e+02 1.342798891918855304e+02 1.357546958934595409e+02 -9.999000000000000000e+03 -9.999000000000000000e+03 -9.999000000000000000e+03 -9.999000000000000000e+03 -9.999000000000000000e+03 -9.999000000000000000e+03 -9.999000000000000000e+03 -9.999000000000000000e+03 -9.999000000000000000e+03 -9.999000000000000000e+03 -9.999000000000000000e+03 -9.999000000000000000e+03 -9.999000000000000000e+03 -9.999000000000000000e+03 -9.999000000000000000e+03 -9.999000000000000000e+03 -9.999000000000000000e+03 -9.999000000000000000e+03 -9.999000000000000000e+03 -9.999000000000000000e+03 -9.999000000000000000e+03 -9.999000000000000000e+03 -9.999000000000000000e+03 -9.999000000000000000e+03 -9.999000000000000000e+03 -9.999000000000000000e+03 -9.999000000000000000e+03 -9.999000000000000000e+03 -9.999000000000000000e+03 -9.999000000000000000e+03 -9.999000000000000000e+03 -9.999000000000000000e+03 -9.999000000000000000e+03
