ncols         84
nrows         80
xllcorner     503844.96649413
yllcorner     4468102.7392659
cellsize      100
NODATA_value  -9999
-9999 -9999 -9999 -9999 -9999 -9999 -9999 -9999 -9999 -9999 -9999 -9999 -9999 -9999 -9999 -9999 -9999 -9999 -9999 -9999 -9999 -9999 -9999 120.7845 112.9258 102.853 91.97271 84.41346 83.06036 84.36403 83.13602 84.70541 83.26572 84.744 86.94543 -9999 -9999 -9999 -9999 -9999 -9999 -9999 -9999 -9999 -9999 -9999 -9999 -9999 -9999 -9999 -9999 -9999 -9999 -9999 -9999 -9999 -9999 -9999 -9999 -9999 -9999 -9999 -9999 -9999 -9999 -9999 -9999 -9999 -9999 -9999 -9999 -9999 -9999 -9999 -9999 -9999 -9999 -9999 -9999 -9999 -9999 -9999 -9999 -9999 
-9999 -9999 -9999 -9999 -9999 -9999 -9999 -9999 -9999 -9999 -9999 -9999 -9999 -9999 -9999 -9999 -9999 -9999 -9999 -9999 122.4527 123.6096 120.7861 119.0533 112.4182 104.4786 91.6976 84.40474 79.97602 80.16541 80.33558 82.4388 79.09789 79.93766 84.39029 83.20844 83.51271 87.25574 -9999 -9999 -9999 -9999 -9999 -9999 -9999 -9999 -9999 -9999 -9999 -9999 -9999 -9999 -9999 -9999 -9999 -9999 -9999 -9999 -9999 -9999 -9999 -9999 -9999 -9999 -9999 -9999 -9999 -9999 -9999 -9999 -9999 -9999 -9999 -9999 -9999 -9999 -9999 -9999 -9999 -9999 -9999 -9999 -9999 -9999 
-9999 -9999 -9999 -9999 -9999 -9999 -9999 -9999 -9999 -9999 -9999 -9999 -9999 -9999 -9999 -9999 -9999 -9999 121.4227 119.9491 118.5968 117.5896 117.4171 117.5708 111.917 102.2422 90.74635 83.5343 79.29224 77.21031 77.07384 77.14404 76.41358 81.88634 83.27812 80.88771 79.49915 83.46748 86.52024 -9999 -9999 -9999 -9999 -9999 -9999 -9999 -9999 -9999 -9999 -9999 -9999 -9999 -9999 -9999 -9999 -9999 -9999 -9999 -9999 -9999 -9999 -9999 -9999 -9999 -9999 -9999 -9999 -9999 -9999 -9999 -9999 -9999 -9999 -9999 -9999 -9999 -9999 -9999 -9999 -9999 -9999 -9999 -9999 -9999 
-9999 -9999 -9999 -9999 -9999 -9999 -9999 -9999 -9999 -9999 -9999 -9999 -9999 -9999 -9999 -9999 -9999 119.0062 118.3336 118.0992 118.117 115.6486 109.7175 110.1206 106.2809 96.84707 88.20707 81.6801 73.91602 75.63707 75.89127 75.12224 76.33006 78.49468 78.26082 76.09375 79.46757 82.88673 85.69373 -9999 -9999 -9999 -9999 -9999 -9999 -9999 -9999 -9999 -9999 -9999 -9999 -9999 -9999 -9999 -9999 -9999 -9999 -9999 -9999 -9999 -9999 -9999 -9999 -9999 -9999 -9999 -9999 -9999 -9999 -9999 -9999 -9999 -9999 -9999 -9999 -9999 -9999 -9999 -9999 -9999 -9999 -9999 -9999 -9999 
-9999 -9999 -9999 -9999 -9999 -9999 -9999 -9999 -9999 -9999 -9999 -9999 -9999 -9999 -9999 -9999 120.9886 119.4046 118.4089 119.2346 116.8375 112.744 104.9462 100.0512 95.79582 90.63164 84.92095 78.45289 79.73229 75.24475 71.24307 71.08898 77.54284 79.73392 77.77551 77.80099 80.31221 82.08992 83.52577 86.42462 -9999 -9999 -9999 -9999 -9999 -9999 -9999 -9999 -9999 -9999 -9999 -9999 -9999 -9999 -9999 -9999 -9999 -9999 -9999 -9999 -9999 -9999 -9999 -9999 -9999 -9999 -9999 -9999 -9999 -9999 -9999 -9999 -9999 -9999 -9999 -9999 -9999 -9999 -9999 -9999 -9999 -9999 -9999 -9999 
-9999 -9999 -9999 -9999 -9999 -9999 -9999 -9999 -9999 -9999 -9999 -9999 -9999 -9999 122.1424 121.1087 120.5216 117.9997 115.4973 109.9998 112.1773 108.075 103.4794 98.17489 92.19513 86.55872 81.57126 83.08019 81.88786 76.83922 71.11234 70.05049 75.19824 77.82352 70.55191 78.66918 81.39375 83.98804 86.53283 87.9485 -9999 -9999 -9999 -9999 -9999 -9999 -9999 -9999 -9999 -9999 -9999 84.61054 82.55192 81.04677 81.94617 83.30125 83.52791 81.8849 -9999 -9999 -9999 -9999 -9999 -9999 -9999 -9999 -9999 -9999 -9999 -9999 -9999 -9999 -9999 -9999 -9999 -9999 -9999 -9999 -9999 -9999 -9999 -9999 -9999 -9999 
-9999 -9999 -9999 -9999 -9999 -9999 -9999 -9999 -9999 -9999 -9999 -9999 122.0596 121.853 120.5547 115.8061 112.0783 111.043 108.9622 106.0113 105.2269 104.8517 100.9342 96.73726 91.68553 87.38064 86.63187 85.42278 82.33298 78.40508 71.63589 65.19203 70.47865 67.80904 76.49993 81.0644 83.64523 85.14123 85.89545 84.94452 85.28446 86.35139 -9999 85.24801 83.0528 81.40219 82.21246 81.92055 84.53808 84.72533 85.39506 83.91936 82.05189 79.80598 79.19663 80.92493 81.51301 79.02897 -9999 -9999 -9999 -9999 -9999 -9999 -9999 -9999 -9999 -9999 -9999 -9999 -9999 -9999 -9999 -9999 -9999 -9999 -9999 -9999 -9999 -9999 -9999 -9999 -9999 -9999 
-9999 -9999 -9999 -9999 -9999 -9999 -9999 -9999 -9999 -9999 122.507 121.8358 121.2027 118.4976 112.9692 110.1653 108.9799 108.3982 107.4921 105.9626 101.0181 98.67841 97.04818 94.22211 85.28477 83.13469 85.58971 83.71901 82.02695 78.19644 74.44767 67.5588 64.51121 72.77135 76.74142 76.29604 77.34307 81.55748 80.01959 78.07214 83.27836 85.62151 86.03101 84.93771 82.36701 77.73948 77.32367 80.48844 81.26854 80.16116 83.60811 83.39817 81.95937 80.08088 76.68494 78.83719 78.91855 76.21539 -9999 -9999 -9999 -9999 -9999 -9999 -9999 -9999 -9999 -9999 -9999 -9999 -9999 -9999 -9999 -9999 -9999 -9999 -9999 -9999 -9999 -9999 -9999 -9999 -9999 -9999 
-9999 -9999 -9999 -9999 -9999 -9999 -9999 -9999 -9999 121.6896 120.7842 118.1873 116.6608 112.9381 109.2016 107.349 107.9109 108.0956 106.6526 103.7081 100.3098 93.5175 87.09438 82.18166 77.97485 81.02695 82.57609 80.84456 78.32444 79.77583 78.00241 73.98273 59.75411 68.92484 73.03379 72.58722 77.30479 75.97097 72.90424 80.18494 83.8046 84.23185 81.07542 84.07346 82.92994 80.55831 72.85018 77.894 75.6217 80.14837 79.86341 80.67317 80.39934 79.16972 75.22733 75.40477 75.56811 74.46576 -9999 -9999 -9999 -9999 -9999 -9999 -9999 -9999 -9999 -9999 -9999 -9999 -9999 -9999 -9999 -9999 -9999 -9999 -9999 -9999 -9999 -9999 -9999 -9999 -9999 -9999 
-9999 -9999 -9999 -9999 -9999 -9999 -9999 -9999 -9999 120.0427 113.1569 110.0679 109.0236 107.8619 107.2357 105.7536 105.3611 104.5465 102.8383 102.2272 97.51723 90.5972 85.12266 77.94703 74.30131 77.41199 78.89725 77.17197 74.61662 77.12788 77.60117 75.10716 64.77222 61.71078 63.44538 72.81737 70.66013 74.24658 77.18354 79.57921 80.57406 80.22523 75.68156 78.54753 79.51229 78.45398 74.92422 69.70838 72.1441 75.6717 76.23692 75.12447 77.30422 77.12256 75.7906 73.53312 72.85249 -9999 -9999 -9999 -9999 -9999 -9999 -9999 -9999 -9999 -9999 -9999 -9999 -9999 -9999 -9999 -9999 -9999 -9999 -9999 -9999 -9999 -9999 -9999 -9999 -9999 -9999 -9999 
-9999 -9999 -9999 -9999 -9999 -9999 -9999 124.5263 120.0291 113.332 107.8519 105.3248 105.9722 104.5949 103.7111 102.5064 103.1003 103.0811 100.2317 94.71471 88.04278 84.2035 82.31281 73.58617 70.54203 73.88759 73.62037 70.4845 70.80436 70.87465 69.70611 69.12737 69.89574 66.68298 59.12188 68.34552 60.79943 66.45752 72.89368 76.08897 74.02218 74.80093 71.87095 73.99756 75.9051 75.10106 73.41344 66.8289 73.53029 73.11449 72.31914 71.1833 72.84355 72.33915 72.31282 -9999 -9999 -9999 -9999 -9999 -9999 -9999 -9999 -9999 -9999 -9999 -9999 -9999 -9999 -9999 -9999 -9999 -9999 -9999 -9999 -9999 -9999 -9999 -9999 -9999 -9999 -9999 -9999 -9999 
-9999 -9999 -9999 -9999 -9999 -9999 119.4011 114.7361 111.7654 108.2302 104.3301 98.29747 101.1169 101.5722 103.3209 102.2742 97.84983 99.81441 98.26946 93.00439 89.15277 84.90309 79.49297 72.51517 67.76384 70.60565 69.90498 68.04077 69.06717 68.93442 69.00228 69.91922 69.94254 67.56501 55.10712 62.02798 58.65543 66.34265 71.30818 71.41999 68.66413 71.06928 68.54212 71.41439 72.21285 70.59119 67.23767 67.01932 69.10133 67.37596 67.63335 68.30809 70.96758 71.67932 74.00406 -9999 -9999 -9999 -9999 -9999 -9999 -9999 -9999 -9999 -9999 -9999 -9999 -9999 -9999 -9999 -9999 -9999 -9999 -9999 -9999 -9999 -9999 -9999 -9999 -9999 -9999 -9999 -9999 -9999 
-9999 -9999 -9999 -9999 -9999 -9999 -9999 110.5707 108.7292 105.6079 101.1556 95.79053 93.2359 98.16907 101.9359 100.9114 95.50011 97.21585 98.45761 98.42309 94.27269 89.39679 81.46271 71.96565 64.48534 68.16472 69.04292 64.00416 64.78662 68.24411 70.23931 68.42228 66.88145 66.89114 63.3205 54.58418 64.29704 65.19055 63.96371 61.96174 67.44538 68.0647 63.73637 68.0557 67.63531 64.45764 63.32629 69.02637 71.80987 73.94336 74.11107 76.25472 76.02207 77.05423 77.00578 -9999 -9999 -9999 -9999 -9999 -9999 -9999 -9999 -9999 -9999 -9999 -9999 -9999 -9999 -9999 -9999 -9999 -9999 -9999 -9999 -9999 -9999 -9999 -9999 -9999 -9999 -9999 -9999 -9999 
-9999 -9999 -9999 -9999 -9999 -9999 -9999 -9999 106.084 103.1579 99.95938 95.48312 88.02603 88.49921 96.60506 98.11144 94.99693 93.91379 97.17812 95.46593 90.10096 82.33234 73.44373 68.37425 61.87218 66.03874 66.88237 61.31107 64.22747 67.16241 67.01504 65.87322 68.0367 66.98188 63.86486 51.94154 55.21252 62.50208 64.03947 65.6943 67.28677 66.44398 62.58129 61.06236 64.31811 71.52559 74.75031 73.49247 78.09599 78.35485 79.19033 79.8551 79.59825 79.63058 79.75439 -9999 -9999 -9999 -9999 -9999 -9999 -9999 -9999 -9999 -9999 -9999 -9999 -9999 -9999 -9999 -9999 -9999 -9999 -9999 -9999 -9999 -9999 -9999 -9999 -9999 -9999 -9999 -9999 -9999 
-9999 -9999 -9999 -9999 -9999 -9999 -9999 -9999 -9999 102.9516 101.1031 96.04866 88.95712 83.23161 86.90224 91.39751 90.73247 91.60451 92.14354 88.00084 86.6466 76.94884 67.37823 64.26195 59.53917 61.81392 62.39323 57.9095 62.1609 64.33227 62.60308 58.52805 65.49937 66.53036 58.6757 50.47178 60.25928 61.69094 61.95797 61.49553 59.34972 56.91228 65.44854 67.68475 65.30168 73.93919 77.79569 78.93019 81.68106 82.71616 83.64806 83.21204 83.34948 83.48485 83.59402 -9999 -9999 -9999 -9999 -9999 -9999 -9999 -9999 -9999 -9999 -9999 -9999 -9999 -9999 -9999 -9999 -9999 -9999 -9999 -9999 -9999 -9999 -9999 -9999 -9999 -9999 -9999 -9999 -9999 
-9999 -9999 -9999 -9999 -9999 -9999 -9999 -9999 -9999 -9999 99.11507 95.25471 91.20943 85.17986 78.9069 81.96098 80.37498 88.66004 88.41394 85.14499 76.33648 73.46134 68.71214 65.54932 68.15183 66.49469 59.98186 55.65873 56.22064 60.66472 56.9766 59.61445 63.47112 61.89103 53.21178 53.18127 57.87502 55.96936 54.41834 57.50983 66.52676 70.77867 71.27599 74.68061 75.77141 77.31529 81.19218 83.93723 85.32709 85.54626 85.88596 86.07461 86.15041 86.34885 86.70315 -9999 86.11407 84.81118 83.77586 81.75897 -9999 -9999 -9999 -9999 -9999 -9999 -9999 -9999 -9999 -9999 -9999 -9999 -9999 -9999 -9999 -9999 -9999 -9999 -9999 -9999 -9999 -9999 -9999 -9999 
-9999 -9999 -9999 -9999 -9999 -9999 -9999 -9999 -9999 -9999 102.6768 101.6185 100.5394 96.97636 93.23351 86.1355 80.17021 88.10167 88.55785 84.83138 77.28247 74.14687 72.11604 70.85139 70.26286 69.18993 67.78968 66.31436 62.28331 53.59753 51.61035 52.07548 51.8475 53.41514 49.14754 52.96593 50.52179 57.20037 63.00515 67.64879 67.24075 74.40206 78.46442 80.64201 82.75006 83.43186 85.54662 86.40196 85.25641 81.86717 83.35427 85.6095 86.52496 85.93056 84.98475 83.36723 81.37673 77.18375 77.16082 74.24207 73.05103 -9999 -9999 -9999 -9999 -9999 -9999 -9999 -9999 -9999 -9999 -9999 -9999 -9999 -9999 -9999 -9999 -9999 -9999 -9999 -9999 -9999 -9999 -9999 
-9999 -9999 -9999 -9999 -9999 -9999 -9999 -9999 -9999 -9999 103.9139 104.1906 103.5126 102.3266 99.11478 93.7934 72.21181 82.44189 87.10434 84.51735 80.99368 74.97429 74.4902 73.31205 71.06503 67.37722 65.38799 64.81552 65.3644 64.49947 62.56851 62.44074 59.4815 48.89286 47.64563 50.408 59.94736 65.42036 69.36737 72.80492 75.85649 79.47112 82.82639 83.95634 85.24176 85.17473 85.11969 83.35835 78.94254 72.15396 78.14258 80.50906 79.44613 75.93793 77.38144 75.71724 76.30839 73.92094 70.65077 70.38036 70.41591 -9999 -9999 -9999 -9999 -9999 -9999 -9999 -9999 -9999 -9999 -9999 -9999 -9999 -9999 -9999 -9999 -9999 -9999 -9999 -9999 -9999 -9999 -9999 
-9999 -9999 -9999 -9999 -9999 -9999 -9999 -9999 -9999 102.5139 102.8675 103.1631 103.9847 105.0746 99.02869 89.50206 77.52501 75.97513 80.5386 79.03666 78.00206 70.21696 73.86858 74.464 73.10538 69.63311 65.77473 60.33229 65.57566 66.34379 65.00123 65.41984 62.39502 54.97805 46.63523 51.64915 57.46922 63.43135 67.89781 73.03673 77.98675 81.17664 82.159 81.56201 78.8785 79.51327 77.15934 73.99784 70.96403 66.88215 69.32183 71.38659 73.0425 72.19363 71.02742 72.10427 70.03566 66.53187 67.04099 68.78403 70.39383 -9999 -9999 -9999 -9999 -9999 -9999 -9999 -9999 -9999 -9999 -9999 -9999 -9999 -9999 -9999 -9999 -9999 -9999 -9999 -9999 -9999 -9999 -9999 
-9999 -9999 -9999 -9999 -9999 -9999 -9999 -9999 -9999 102.2585 101.1745 100.7508 103.1814 103.2489 98.34956 92.1021 81.88979 67.60168 71.8821 74.13902 71.90047 65.52561 72.70023 73.2466 72.20032 68.60021 65.08138 60.30565 61.87873 64.13075 58.85185 64.0865 61.3097 48.55589 48.74105 60.52777 64.11584 67.78844 71.90657 76.66317 78.96426 75.72737 77.61455 75.20824 68.7974 70.84695 68.17278 69.89915 68.20168 64.78002 67.34039 67.94344 68.27074 66.74691 65.69913 67.79035 65.74568 66.00498 67.37758 69.08443 69.52216 -9999 -9999 -9999 -9999 -9999 -9999 -9999 -9999 -9999 -9999 -9999 -9999 -9999 -9999 -9999 -9999 -9999 -9999 -9999 -9999 -9999 -9999 -9999 
-9999 -9999 -9999 -9999 -9999 -9999 -9999 -9999 -9999 101.3139 99.5938 98.15234 100.6325 98.64726 95.96395 91.94238 87.88476 81.54174 72.24653 64.49586 65.57269 67.52444 70.73588 68.31585 69.22038 65.14772 63.5051 59.78334 58.44359 61.83136 55.94804 60.55453 57.27613 45.29892 51.60066 55.41206 61.77477 66.34235 74.07441 78.09303 77.80556 73.3792 66.90721 66.83349 64.63545 66.1596 64.97478 65.36151 63.79972 62.63329 64.86795 64.87364 65.76907 63.02663 65.23993 66.05529 63.13437 65.82404 66.01458 67.76564 70.41711 72.06396 73.17742 -9999 -9999 -9999 -9999 -9999 -9999 -9999 -9999 -9999 -9999 -9999 -9999 -9999 -9999 -9999 -9999 -9999 -9999 -9999 -9999 -9999 
-9999 -9999 -9999 -9999 -9999 -9999 -9999 -9999 -9999 99.96423 98.21036 95.94884 96.9139 96.69909 94.37493 92.17704 88.44907 82.53374 76.4164 67.61063 60.52232 65.17533 67.72144 66.89307 68.29635 66.28648 63.27035 59.33496 54.88294 56.96301 58.04238 56.86261 46.84624 45.51974 58.83496 63.15129 68.56429 72.37229 76.10151 78.32354 74.85125 69.64969 62.92741 63.26678 60.98811 59.95798 61.74908 62.6332 59.03505 62.18574 63.71392 63.04113 63.56797 60.52152 61.63515 60.62384 63.86542 67.93674 69.57426 73.00438 74.48646 73.91342 -9999 -9999 -9999 -9999 -9999 -9999 -9999 -9999 -9999 -9999 -9999 -9999 -9999 -9999 -9999 -9999 -9999 -9999 -9999 -9999 -9999 -9999 
-9999 -9999 -9999 -9999 -9999 -9999 -9999 -9999 -9999 -9999 97.93285 94.22016 93.0657 92.33376 90.62436 89.32221 87.63976 82.48139 71.31725 64.85747 59.26799 58.64239 64.1364 61.52063 66.1362 66.59466 64.74571 61.08704 51.98927 55.43042 59.1137 55.20871 46.44043 50.12636 59.19904 62.53444 69.62973 74.57468 76.98302 73.23798 68.2863 65.23816 61.79009 60.0817 58.34994 57.66228 60.15313 61.20815 59.02292 61.62912 61.30226 60.81379 61.1067 58.70205 62.74331 68.5034 70.675 73.20768 74.39145 73.85287 72.80704 72.18185 71.10508 -9999 -9999 -9999 -9999 -9999 -9999 -9999 -9999 -9999 -9999 -9999 -9999 -9999 -9999 -9999 -9999 -9999 -9999 -9999 -9999 -9999 
-9999 -9999 -9999 -9999 -9999 -9999 -9999 -9999 -9999 -9999 96.58282 93.91837 90.53738 88.89755 86.03614 86.94851 86.90612 79.58568 73.57707 70.11792 67.77117 55.88391 57.86551 58.36396 60.77679 65.17365 63.0731 60.06698 53.88245 50.79998 54.21837 54.56799 44.60642 46.27973 56.83907 64.11377 70.99872 75.46883 70.88097 64.65822 63.32396 58.96328 54.79623 58.32671 57.9874 57.3223 59.53956 56.35886 60.04353 57.95469 58.925 56.91912 63.02148 68.79893 69.51126 71.99655 73.40694 71.2326 70.17117 70.0518 69.34623 70.32738 69.59062 -9999 -9999 -9999 -9999 -9999 -9999 -9999 -9999 -9999 -9999 -9999 -9999 -9999 -9999 -9999 -9999 -9999 -9999 -9999 -9999 -9999 
-9999 -9999 -9999 -9999 -9999 -9999 -9999 -9999 -9999 -9999 95.74442 93.21014 89.32628 84.5084 81.07986 83.68804 86.33769 82.99073 80.54508 76.62691 73.30141 62.37968 63.7264 64.50373 52.87177 60.88963 60.89599 57.93249 53.18275 45.84726 54.41763 56.45689 43.8788 51.74786 64.83505 70.22295 74.7634 72.06456 65.49896 56.97673 58.08487 54.72299 54.64074 56.54665 51.82979 56.77419 56.35886 56.55208 56.35886 61.439 64.75526 68.24172 70.3199 71.27499 71.9154 71.53033 70.45199 67.97168 67.30317 66.9138 66.68757 71.0168 71.62871 72.59504 -9999 -9999 -9999 -9999 -9999 -9999 -9999 -9999 -9999 -9999 -9999 -9999 -9999 -9999 -9999 -9999 -9999 -9999 -9999 -9999 
-9999 -9999 -9999 -9999 -9999 -9999 -9999 -9999 -9999 94.01986 93.14346 91.45651 89.41444 86.70183 81.10821 76.75678 84.22137 84.52346 81.65833 77.45036 72.18102 63.47802 65.049 64.57001 59.2205 50.99397 51.85215 50.0334 47.45259 44.55605 45.42906 52.12798 45.91216 62.90988 70.14915 74.36253 72.44964 65.82315 63.23292 58.64104 53.4968 54.02707 51.4474 53.51139 53.79387 50.20505 56.85272 62.16573 65.30442 68.84875 70.02962 70.54984 70.53477 69.53089 67.03718 68.49329 66.93944 65.14487 64.31931 67.61864 71.36963 71.13705 68.29837 69.56706 71.73009 -9999 -9999 -9999 -9999 -9999 -9999 -9999 -9999 -9999 -9999 -9999 -9999 -9999 -9999 -9999 -9999 -9999 -9999 -9999 
-9999 -9999 -9999 -9999 -9999 -9999 -9999 -9999 -9999 94.35133 93.07347 90.69704 87.36376 86.10838 80.61229 74.88129 84.33794 86.02302 82.33796 79.96292 75.21247 68.4348 62.88781 63.19363 63.68461 64.47754 65.20431 63.93768 62.77419 59.33665 49.78051 40.51842 60.07115 70.23679 73.84077 71.77782 65.58656 61.5032 59.09118 55.44463 50.08744 52.97869 49.92202 49.87579 55.07884 61.08548 65.68417 67.15504 67.13435 68.69295 66.04321 66.57551 68.37811 67.26027 63.96497 66.29543 63.15589 64.40875 69.38689 70.9165 68.73519 66.68311 67.48036 70.87772 74.59577 76.12646 -9999 -9999 -9999 -9999 -9999 -9999 -9999 -9999 -9999 -9999 -9999 -9999 -9999 -9999 -9999 -9999 -9999 -9999 
-9999 -9999 -9999 -9999 -9999 -9999 -9999 94.59261 -9999 95.53771 94.95544 92.07655 87.67647 81.07906 76.36314 75.81912 83.64165 83.69865 81.55224 79.46598 74.416 68.49897 62.14954 57.74958 61.5606 68.39853 70.69759 69.79524 67.1726 62.99486 53.18552 43.77975 65.68053 70.49227 67.30793 61.50454 61.10635 56.5627 55.10786 55.06168 49.99154 49.87365 51.64892 58.21164 63.19289 65.83901 65.34029 64.97074 64.57435 60.7017 64.21779 66.04185 65.67923 62.5323 62.37612 60.92634 66.3534 69.65295 68.16135 66.20393 63.00874 68.38129 70.22789 71.66158 74.4884 78.96619 -9999 -9999 -9999 -9999 -9999 -9999 -9999 -9999 -9999 -9999 -9999 -9999 -9999 -9999 -9999 -9999 -9999 -9999 
-9999 -9999 97.16621 95.91235 -9999 93.67499 92.64505 93.92252 95.88011 96.06076 95.71564 92.59299 86.27197 79.89059 73.23494 70.7018 83.48685 84.59848 81.25365 75.84141 68.20838 64.87389 58.35953 54.34046 52.70856 58.47355 66.61411 66.95906 61.8941 59.2192 38.9019 43.60217 61.66467 60.00019 53.2771 55.26433 54.02761 51.88367 53.80276 53.23201 49.85265 53.32976 59.8774 63.64194 63.68255 63.32132 62.97903 60.99007 57.73005 61.13879 61.71404 60.33244 60.71069 59.82139 63.99821 67.4028 67.48641 64.94335 61.62715 61.80556 64.88496 68.33944 74.2971 77.48239 79.30633 81.61655 88.01878 91.95184 -9999 -9999 -9999 -9999 -9999 -9999 -9999 -9999 -9999 -9999 -9999 -9999 -9999 -9999 -9999 -9999 
-9999 -9999 97.18897 94.56647 93.01921 92.28839 91.50609 92.55377 95.18845 96.12521 95.43896 90.65594 85.74071 83.33183 75.73901 66.36941 78.89565 83.68024 81.68581 79.47276 72.1216 68.54581 67.4474 62.34137 51.9125 50.26731 54.98114 51.72411 51.89413 45.25623 38.70219 41.97702 51.69674 51.5203 47.91515 48.82499 50.83946 47.88633 51.61804 50.01608 54.73249 60.62268 61.86595 61.22169 60.0499 58.45026 58.90659 55.65236 55.08815 57.77494 55.6616 60.50904 64.08801 65.10401 64.5892 61.92094 62.29136 59.21241 63.836 66.51913 69.32706 73.98145 79.22427 83.79296 87.47023 89.56911 94.57329 99.13251 105.3684 -9999 -9999 -9999 -9999 -9999 -9999 -9999 -9999 -9999 -9999 -9999 -9999 -9999 -9999 -9999 
-9999 -9999 -9999 95.32593 91.69987 90.24159 89.81637 92.31422 94.33118 95.10352 94.15495 91.46121 88.57179 83.07562 76.4774 63.57011 69.1373 77.48501 75.90417 76.33276 71.5051 72.35896 72.83617 65.71679 58.76762 46.40418 45.77972 46.92587 43.84567 43.26674 38.02346 41.69726 42.72537 45.29097 47.58157 50.34466 48.46218 47.9013 46.81617 56.37479 59.97529 60.30462 59.32383 57.30342 55.90877 53.87738 55.22562 51.47119 56.98077 61.10161 62.33135 62.20247 61.14312 59.55864 59.28872 57.32716 57.12165 60.63773 61.61 65.40348 70.66885 78.54971 85.06544 90.2331 94.43718 95.32996 100.6403 106.5919 112.0477 115.7243 -9999 117.8152 117.9563 118.5426 119.7651 120.3291 122.1581 -9999 -9999 -9999 -9999 -9999 -9999 -9999 
-9999 -9999 -9999 96.39864 91.73975 89.52586 89.81789 91.91293 93.6968 94.15564 92.09457 90.66984 86.95362 82.36304 75.44958 67.59171 59.98396 58.85549 61.88155 67.17841 63.73249 72.56305 73.41666 68.05154 61.8218 51.09096 42.41434 44.7219 44.00607 38.07402 37.28889 42.72788 46.58094 50.10614 50.80704 49.66056 43.3895 50.64523 57.06361 58.29435 57.51129 56.36426 55.18677 50.70034 52.51749 49.10064 56.57946 59.34275 59.784 59.5948 58.54425 56.91925 54.56739 54.13629 59.40794 62.53987 60.59538 63.25417 64.68594 69.26038 74.33035 81.72664 90.02693 95.68719 99.51125 101.7021 104.1938 112.8638 115.2127 116.0746 116.0924 119.1396 120.6412 118.4066 118.43 119.5388 122.1736 124.0497 -9999 -9999 -9999 -9999 -9999 -9999 
-9999 -9999 -9999 96.9228 91.79305 89.20829 88.25211 90.92115 92.15427 91.91106 89.36078 87.64268 85.40747 82.3488 78.55344 74.65652 74.6764 70.86919 55.47473 55.66059 61.09303 68.30153 69.74253 67.44275 62.11776 53.71286 54.47389 48.79283 41.04901 36.80524 43.50054 48.62373 51.02415 53.15713 52.62804 49.76647 46.57751 52.82255 51.79781 51.60398 51.81283 53.43555 53.53008 50.66199 51.85553 53.94899 55.75379 56.64842 55.64191 53.4685 51.4388 56.10795 59.58593 59.16443 60.37408 62.38428 64.83916 68.74368 71.95925 75.48707 81.91192 88.33715 95.45804 100.6324 105.3805 107.6907 108.5389 110.8235 113.7094 115.7258 119.9759 128.827 123.8653 120.3845 122.1208 123.1055 124.2356 124.6872 -9999 -9999 -9999 -9999 -9999 -9999 
-9999 -9999 101.986 96.07875 91.4698 88.40488 86.98657 88.97418 90.59329 89.41442 85.59827 80.62892 81.4461 81.06549 80.27631 80.2828 77.19314 72.38866 67.13969 54.71447 49.47079 56.37992 61.5159 62.84006 54.43651 50.14561 50.16815 48.57462 42.06087 40.48156 46.58601 51.53357 53.48497 54.47699 52.59629 43.08272 42.70953 44.00047 47.4677 49.94578 50.1128 51.86886 50.59745 46.02612 49.64097 52.27718 52.01797 50.16351 49.06203 53.89591 54.89401 56.35375 61.26385 62.40728 65.28549 69.12072 71.23913 73.15821 79.61606 83.2289 89.38903 94.7593 100.4204 106.255 109.8859 112.6927 115.1565 118.1331 119.8968 120.9696 128.5594 131.5203 128.5835 127.3776 128.4055 129.886 127.9255 126.5303 126.9584 -9999 -9999 -9999 -9999 -9999 
-9999 -9999 -9999 96.97666 92.57813 90.11898 86.87049 84.30969 88.69378 85.68295 80.26891 74.76189 77.02824 77.31812 76.47366 77.68007 75.36228 69.76601 64.52583 59.01131 51.99805 44.50766 50.15704 53.37452 51.97219 53.06768 46.81677 40.19493 35.43711 39.37585 38.82686 39.5118 41.34843 43.1021 41.68713 43.49714 46.65366 46.22451 47.73332 45.75219 42.43643 43.00988 44.47919 45.45764 47.12928 47.07283 48.95793 52.60131 54.24004 55.58772 59.06781 63.3532 66.48752 68.70023 68.36713 76.25483 78.7961 81.69514 86.00918 90.60551 95.62017 100.0179 105.9064 111.3659 112.3003 115.9166 120.0271 122.942 131.4695 135.5471 128.6894 125.3032 124.5543 120.3471 119.4017 121.5082 120.9522 121.8712 122.7796 124.8009 -9999 -9999 -9999 -9999 
-9999 -9999 -9999 96.38124 95.04053 91.68728 84.88715 81.66861 85.28575 81.39197 75.22111 67.86481 73.04807 71.30112 71.34322 71.89633 72.53299 72.8633 70.77867 64.05023 64.90069 59.67335 41.31161 43.17308 49.02749 48.20111 45.09711 34.16634 35.2525 36.50766 36.60771 35.90459 36.79041 37.09579 38.90361 39.64655 44.78238 40.43595 41.00908 41.53723 42.4195 43.9558 44.79443 45.32298 46.99422 46.91447 52.94764 53.23638 58.52673 62.95638 66.05276 70.54623 73.98233 76.97427 77.99777 82.30151 86.6816 89.44669 91.95433 96.38242 100.9759 105.6185 110.1853 111.9461 110.8886 109.9864 116.1861 123.4145 137.634 134.9719 123.9299 118.6515 120.0868 116.3727 115.6863 116.8212 115.6099 116.2639 118.6042 122.5744 125.0928 -9999 -9999 -9999 
-9999 -9999 -9999 -9999 91.09829 86.89056 81.55789 77.71822 80.61359 76.54168 69.18864 61.68031 70.1318 65.35628 63.20191 65.31725 72.71429 75.10281 72.44102 71.19132 68.6848 63.66043 53.54849 38.55829 44.67288 39.60654 37.26811 35.00808 37.34797 41.39666 43.79841 44.59619 46.00209 40.24371 48.39407 41.82776 40.60397 41.33561 44.54052 45.42153 48.31231 50.01062 50.49372 50.53268 46.15017 46.46275 55.20376 61.26563 65.57585 70.90931 74.71258 77.65196 80.89871 84.32214 84.73343 84.58519 90.62748 94.51204 98.14679 100.9996 105.81 108.7001 110.2727 110.6345 108.2722 104.6796 111.5305 115.4482 135.5471 135.0266 124.4587 115.3698 112.8728 114.2389 113.8221 115.7933 112.3691 115.6605 120.5205 122.7984 124.2419 -9999 -9999 -9999 
-9999 -9999 -9999 -9999 85.53172 83.88048 78.57352 71.61794 74.55232 69.68016 65.50835 58.00693 66.12891 60.46669 59.02247 57.78921 72.61034 74.17333 74.81983 74.15923 70.42822 64.78193 57.27987 40.35389 39.45984 37.52377 33.92113 39.67891 45.0209 50.04068 52.20564 47.46476 50.41092 51.03706 47.98 45.53478 50.07784 47.47118 49.36761 51.93854 51.72148 56.72969 58.79383 60.81054 60.46135 48.47129 47.74608 67.35242 73.37945 78.69936 81.15425 83.90948 87.49939 90.16334 89.80083 90.3447 94.30904 98.26127 101.4841 103.5068 105.9312 107.1588 106.9514 105.75 102.2617 100.7138 101.278 108.1163 118.2753 119.7879 115.3949 111.8384 110.123 112.6022 112.9519 114.6817 110.8151 116.7602 121.7137 124.0983 125.6669 -9999 -9999 -9999 
-9999 -9999 -9999 -9999 -9999 83.02038 80.32713 73.26761 63.50528 62.12119 61.14973 52.62921 59.29408 54.55698 52.9323 66.65459 71.53488 74.95883 75.01283 73.46799 70.38245 66.45523 61.8678 52.83232 41.38733 33.2382 41.27303 49.30703 53.76818 58.01962 58.19027 54.85721 50.69646 49.78334 49.93625 47.93005 52.79713 54.68344 51.2839 58.83956 61.85086 65.44114 68.1121 68.31 67.20996 59.09038 50.73068 74.12858 79.5414 82.88773 85.20119 86.94908 90.00239 93.05776 94.53606 96.18356 99.03043 99.85567 99.66457 96.88808 100.0211 98.21719 97.18061 93.60269 93.42606 89.23146 94.18778 99.84668 103.318 106.4197 106.3814 107.1972 108.0245 109.6658 112.2325 115.2139 109.6851 113.8865 116.2268 125.4688 127.3676 -9999 -9999 -9999 
-9999 -9999 -9999 -9999 -9999 84.2046 83.31638 75.12348 67.12097 55.25312 52.09553 47.25071 51.89178 44.2785 57.80798 62.54132 71.60225 73.88455 71.25276 64.04446 61.1625 65.99844 62.90509 57.29532 37.03415 36.86784 51.83815 60.03982 63.57552 64.85625 58.07269 61.47121 53.46854 59.28957 58.60418 59.45066 59.19004 62.73096 64.68403 66.97137 70.4013 73.25372 75.18182 74.92608 71.34126 51.35802 60.77293 76.65148 77.88623 77.62817 81.67662 86.13474 90.84211 95.2951 97.62476 97.08817 96.15361 93.85936 90.12018 86.0142 84.96162 84.14192 81.82958 86.96904 89.98521 99.514 105.8833 108.4798 112.6331 112.297 110.4534 108.6395 107.8903 107.9811 110.3722 109.5294 109.1922 110.6683 113.8228 120.2698 123.6726 126.2678 -9999 -9999 
-9999 -9999 -9999 -9999 -9999 84.40393 82.11396 76.74171 70.11533 64.34666 54.20341 45.96782 42.47382 42.58013 53.59175 65.53679 71.65289 73.4981 70.17026 62.97726 55.13037 50.13326 56.82408 40.21941 32.42783 41.49184 54.79808 64.78792 68.25082 58.99899 67.35251 65.22982 64.28165 66.2518 66.59631 67.51237 67.28373 69.87449 70.70568 73.26583 77.99464 80.06792 79.37292 75.76068 56.58504 55.98541 61.34719 68.61274 75.53795 81.1135 85.30662 90.47993 92.84853 92.77959 91.44009 84.9874 81.68083 77.6653 77.34414 76.507 84.9013 87.67494 93.18144 96.03151 101.6676 105.5928 108.9755 112.4857 115.8475 120.4771 119.399 115.2398 111.4594 108.5211 108.5631 108.7735 112.1297 115.1632 117.27 119.2218 121.7357 125.1575 -9999 -9999 
-9999 -9999 -9999 -9999 85.19078 83.36743 81.51339 77.29927 71.36841 65.68143 61.12504 49.14606 45.97789 38.04984 47.02874 62.05216 72.29002 74.84934 72.72424 66.57322 61.03691 50.41995 39.66152 31.36135 37.71469 41.22092 38.21261 49.3466 59.65856 68.49139 69.14061 69.25492 70.59882 72.68734 72.59844 71.38174 72.89034 75.39409 76.82896 76.99137 80.37772 82.4019 78.42908 67.30018 56.69743 53.00982 71.66948 76.65995 79.61856 82.81891 84.65888 86.14359 83.82716 76.08733 73.90482 70.22186 73.05973 75.10364 83.60768 90.36847 93.77898 95.28374 100.5587 103.6097 105.9168 108.8565 111.7841 115.6356 118.7955 122.7576 125.9305 121.5683 119.1565 112.3055 108.682 109.5122 114.76 119.2502 122.9747 125.6532 124.1375 125.9912 -9999 -9999 
-9999 -9999 -9999 -9999 83.08046 81.6209 79.53404 75.47382 70.91186 64.83656 61.857 58.94341 58.07597 37.03588 55.14898 68.78625 74.10051 75.16809 71.25842 64.82592 53.21455 44.86701 32.78618 30.78419 48.1452 54.86863 51.31786 58.56638 57.97614 58.0713 61.93766 70.87682 75.695 78.04504 77.32497 74.95555 77.33433 81.19852 82.36026 84.27242 83.53895 84.76546 81.26826 79.58598 74.99665 53.52089 56.144 60.32748 59.63103 60.85236 62.00666 64.03846 64.2986 66.73597 77.23853 82.23286 76.89737 85.67197 88.30706 93.8514 99.83241 102.6903 105.0018 107.5797 109.5759 112.5247 115.8961 120.1393 123.2908 127.133 128.0184 125.7118 122.4896 116.23 108.8439 108.9104 111.7523 117.3647 125.5761 128.7147 127.4231 127.1426 129.5868 -9999 
-9999 -9999 -9999 82.48241 81.30369 78.6484 76.73018 72.82864 67.67726 60.81264 58.36192 60.69665 58.13873 34.55125 60.68388 68.59901 70.06384 68.11361 56.73214 44.71856 41.38039 30.9492 30.26167 43.67215 51.96456 56.02074 57.70833 59.27432 57.97614 57.97614 61.16321 68.17906 72.77287 78.99086 80.97179 82.23352 84.54264 86.84468 87.76726 91.38222 90.78458 89.29453 87.71863 86.05969 80.30109 55.57006 63.71862 68.81028 68.918 69.54527 68.39084 72.71658 79.16894 72.65378 84.08208 89.38291 82.17103 91.49567 95.71892 99.46279 104.0183 106.7541 108.3447 110.5903 113.642 117.6811 121.3345 125.6463 128.1611 129.7121 128.3969 126.2295 123.9246 116.9093 109.7034 109.1149 112.0665 119.5826 126.3551 129.662 129.2093 128.5021 128.9241 -9999 
-9999 -9999 -9999 82.20222 79.39972 74.65382 71.90704 69.60197 66.23312 58.86885 56.88738 59.44807 56.56807 32.07115 59.09476 64.97858 48.86083 36.17311 34.34168 33.54805 30.08105 31.53465 37.64056 41.30032 51.3599 57.90945 64.36317 65.83827 64.10807 58.74116 57.97614 60.34898 70.47472 80.20338 84.66525 87.83304 89.93128 92.10989 93.5274 94.65522 94.71732 91.26974 91.07547 87.96343 80.02193 56.91998 65.62917 74.38123 77.65891 78.32939 78.74581 78.11883 85.26943 82.87571 81.22935 90.50996 92.35645 92.65118 99.61708 103.121 107.4639 110.4256 112.2456 115.0387 119.9753 123.3897 127.0968 129.4725 130.4386 129.5916 126.3608 125.6802 126.4062 119.9849 110.8789 113.9614 113.4764 120.3818 127.3085 129.4465 129.6441 129.1932 128.8498 -9999 
-9999 -9999 -9999 79.40109 76.87127 71.32764 66.49013 64.82332 60.08586 47.81623 57.22418 57.15967 51.62397 30.68266 55.67456 33.36853 27.12979 29.24292 28.96344 29.92596 37.62561 50.58732 46.7537 56.60768 58.13251 64.71098 70.36635 72.11449 75.42905 76.36455 57.97614 59.82162 75.09843 83.03616 87.26314 90.3009 92.38139 92.41508 95.21265 96.60403 95.17612 91.41227 87.71044 80.89724 65.71554 61.58155 64.48592 76.78188 81.87657 85.31297 85.21566 78.46538 89.27998 89.6067 85.07366 94.07077 97.63629 98.89111 102.4953 106.8884 110.2944 114.1102 117.1071 121.3909 124.6355 127.6292 130.1273 129.7811 128.4474 125.8549 123.5272 119.602 119.8174 113.4853 114.2397 118.1245 116.2562 117.5873 120.4148 122.842 128.4792 127.6319 128.1385 129.5237 
-9999 -9999 77.62325 75.62397 73.3756 67.70844 60.13646 56.99437 51.73434 44.65251 57.7271 57.99389 46.92582 27.95592 29.81653 26.73997 32.30706 36.58882 42.58743 48.98899 54.35151 58.26579 53.84525 63.70943 65.61546 73.26918 78.41517 81.87714 83.1004 77.78815 65.2523 57.97614 64.00666 76.2112 76.1762 78.62604 81.54855 89.89246 94.13812 94.24048 88.51276 81.54841 76.68398 65.54869 59.99552 71.87275 69.29034 78.9899 85.31135 89.98566 90.3773 84.96031 90.90681 94.18722 91.17415 96.3904 101.0913 103.489 107.3941 110.5142 114.1081 118.1396 122.2162 124.8829 128.5598 130.2703 130.4288 127.9126 124.0707 121.7264 123.3052 116.7363 113.2777 114.0429 116.7136 120.4983 119.2165 117.9718 117.8569 120.3499 123.8831 126.2715 128.298 130.3708 
-9999 -9999 -9999 71.85432 66.52419 61.18762 54.96134 46.70918 49.94576 49.44231 58.0398 54.59492 40.35983 26.39259 28.52847 31.48916 34.16957 40.69255 47.83681 54.17633 64.80872 57.63573 61.06403 70.07922 72.96819 77.81874 83.08047 86.90699 84.80082 73.21322 69.38841 58.91095 65.14955 68.08878 74.61576 81.19669 85.63145 90.40582 94.03925 92.59574 87.51938 85.15297 76.82698 61.87098 72.90894 79.77469 75.59392 83.16151 88.48809 92.43363 94.47943 90.37965 95.11863 98.06264 98.83524 97.38438 103.9939 108.3579 111.7855 114.703 118.4876 123.3293 127.216 129.0975 130.9309 131.2881 130.1395 127.2863 124.0911 120.8143 117.0715 115.1213 113.2299 117.2239 122.165 122.1346 120.7329 121.6055 121.7207 123.1342 126.7957 130.0051 129.9447 129.9466 
-9999 -9999 -9999 67.45279 64.21988 56.17972 48.81785 40.9362 41.19516 50.09046 54.37844 46.52118 25.96112 26.72463 33.67502 37.11674 37.88844 40.01481 54.51918 60.42783 63.61124 75.48679 72.40619 68.71687 78.63933 84.49598 89.25072 88.87878 84.92953 76.44803 69.28792 72.03529 74.82668 77.22445 82.06036 85.54883 90.66497 93.50632 95.16631 92.409 90.49724 83.58894 76.76672 62.8077 79.79028 84.32023 83.02157 82.61687 88.4004 93.51154 97.7115 97.94182 100.1505 102.7691 103.5233 104.4896 108.6072 112.7007 117.0973 119.9146 124.5779 127.7702 130.5726 131.9922 131.9299 129.9768 131.7922 130.7651 126.8519 127.2917 120.7149 115.1464 113.8566 117.0575 123.0873 123.5708 122.1146 125.1872 125.7609 127.1167 129.0861 132.9742 131.6456 131.0271 
-9999 -9999 -9999 -9999 59.2314 54.66735 54.63435 54.15947 52.06066 32.83839 48.69188 34.35711 25.92982 34.45606 40.4679 46.60645 50.1017 54.79501 59.66463 67.78238 76.1577 80.60056 76.97333 74.84423 83.86595 89.61623 92.40439 89.5619 80.14045 75.43593 70.06281 78.29844 83.00912 82.90333 88.15391 91.70328 93.83604 95.33371 94.07278 87.6813 71.7483 66.55263 65.64942 69.15962 81.55547 88.95438 89.78769 92.79259 96.34882 97.72381 100.6381 102.2294 102.988 106.0382 107.6132 109.1722 112.454 117.3777 122.2196 126.5777 127.9635 130.767 132.7548 133.106 131.3201 126.4371 127.712 130.9492 122.1694 120.0117 116.7421 115.4468 116.3544 118.0311 121.6274 126.105 124.28 124.0717 125.9749 126.6248 127.0596 128.8744 129.8214 -9999 
-9999 -9999 -9999 -9999 -9999 57.83105 56.51745 55.68967 53.0109 43.25535 37.65688 29.27545 26.82038 39.84555 48.00323 54.8986 60.21674 60.62463 59.617 67.39413 77.87806 80.74406 79.9151 83.20037 85.75609 92.70501 92.03842 85.56893 80.11798 77.16875 77.48403 83.22446 87.2049 88.19933 90.86091 93.85426 93.98414 93.6292 89.86507 78.4399 75.06882 78.01424 79.8094 84.94553 89.05106 94.20392 95.59478 98.31252 101.4466 101.7156 103.66 105.7696 106.5975 109.3605 111.4135 114.1477 116.6204 121.4242 126.4961 129.3816 131.3015 132.6062 134.275 135.4865 137.1211 126.6154 122.0865 123.0927 120.0054 117.059 116.2426 117.4557 120.3458 121.419 124.1921 128.0566 127.6805 126.0346 125.9211 126.6092 127.9767 128.651 -9999 -9999 
-9999 -9999 -9999 -9999 -9999 58.459 57.45641 52.83444 49.64035 46.23057 30.74915 25.13222 29.86071 45.30798 55.85552 62.50861 69.41725 77.93034 69.30628 59.617 73.52155 76.92146 83.17201 89.33909 91.89205 93.06366 90.87628 85.16694 81.70187 77.58778 83.99054 88.00934 91.03091 92.27261 93.19813 -9999 92.3967 89.48109 82.47698 75.0426 76.34433 85.84122 88.81542 93.00392 96.7592 99.37528 100.7251 102.9789 104.2422 104.7026 105.5296 107.4738 109.6171 112.7387 115.6946 120.5 122.2364 125.3846 127.9207 129.0661 130.4263 132.7139 136.1367 140.1985 141.1008 134.9838 124.6868 119.8497 117.6576 117.2383 118.6967 121.699 125.5434 125.6754 125.836 127.4834 129.6763 128.2543 129.2938 129.6823 -9999 -9999 -9999 -9999 
-9999 -9999 -9999 -9999 62.21595 59.72869 57.55421 51.51561 43.99754 36.3497 29.48115 23.96191 37.46832 52.65625 66.03983 75.51033 82.24133 82.83164 77.54251 65.57705 68.36906 80.72932 87.4641 92.41586 92.76111 92.07624 86.19391 85.03194 84.99619 84.84326 87.79346 91.41507 -9999 -9999 -9999 -9999 93.16692 92.44382 90.02454 85.51088 75.07973 77.84164 91.17006 96.16259 99.63449 102.0904 103.2438 104.1058 104.5823 105.5346 107.7105 111.2426 114.0079 115.1174 120.9263 125.0741 126.2806 126.07 125.4793 125.7606 126.8989 127.6325 135.336 135.5932 137.551 138.4292 129.196 124.8394 118.9421 120.1079 123.678 125.73 128.9623 130.5406 129.7439 128.1749 129.1075 129.4013 130.0075 130.6673 -9999 -9999 -9999 -9999 
-9999 -9999 -9999 60.29356 58.87769 58.57117 53.81126 47.43853 28.88703 22.81104 23.83246 36.4841 50.804 65.00332 75.46374 82.86789 86.31828 83.67717 76.53346 63.00768 72.78451 83.84512 88.46094 90.97932 90.16214 89.67116 89.63931 89.85572 90.82364 90.56152 90.68194 -9999 -9999 -9999 -9999 -9999 -9999 94.85709 94.73378 92.48693 86.76033 76.34267 86.31773 97.82167 100.5912 100.4861 100.7382 100.0143 102.2628 106.4508 110.4921 114.282 117.3122 120.8808 125.1074 126.0178 124.7682 123.922 120.8396 116.6321 116.3215 117.9594 123.9457 127.5128 131.1361 132.2306 128.267 125.1175 122.1759 123.7934 128.581 129.9553 132.5682 134.8828 132.8376 129.7598 128.8976 130.4509 130.9282 -9999 -9999 -9999 -9999 -9999 
-9999 -9999 -9999 57.89306 52.67614 46.13115 34.00228 23.55393 23.99497 23.77847 44.36407 55.56542 69.04428 73.83768 80.98108 86.97934 87.09443 81.31178 75.11419 69.96526 76.39701 83.79617 86.10846 84.27936 87.32874 90.50234 92.04678 -9999 -9999 -9999 -9999 -9999 -9999 -9999 -9999 -9999 -9999 97.74139 98.28207 97.4939 94.51035 84.36977 79.30994 95.81558 94.34777 92.53342 95.73055 101.2806 105.0158 109.1922 113.9376 119.1653 121.9725 123.742 125.9578 124.796 119.7008 114.6601 112.7509 113.5144 117.7184 127.3964 126.0515 126.0432 128.498 129.1535 126.959 124.3505 127.4481 128.4256 131.6723 133.1957 135.7751 -9999 -9999 -9999 -9999 -9999 -9999 -9999 -9999 -9999 -9999 -9999 
-9999 50.63876 52.4439 55.10073 49.17784 39.60144 24.38071 32.55149 34.89913 42.45743 57.02726 63.61058 72.84869 77.74577 83.94586 84.56237 80.04719 78.44978 73.67555 72.2172 76.92287 78.3983 79.56055 85.63156 88.96636 90.83546 -9999 -9999 -9999 -9999 -9999 -9999 -9999 -9999 -9999 -9999 -9999 99.7614 100.6752 99.63087 97.31457 86.85355 80.69196 84.95701 89.86352 94.78601 99.83737 104.0114 108.843 113.3292 118.161 123.5275 123.7437 122.9943 124.4332 120.6521 109.3793 108.4538 116.1743 124.0145 131.1374 134.4121 130.2735 129.3249 130.7572 130.552 128.7764 126.9257 130.2189 132.5132 135.1297 137.2635 138.3541 -9999 -9999 -9999 -9999 -9999 -9999 -9999 -9999 -9999 -9999 -9999 
27.06507 30.27281 48.29836 48.30941 44.02857 31.19093 33.28284 39.46048 39.93929 46.53555 44.78814 57.81425 64.62823 72.51496 73.61388 72.5245 73.62029 77.2343 74.057 73.15802 73.35831 78.10813 82.37039 86.45116 89.503 -9999 -9999 -9999 -9999 -9999 -9999 -9999 -9999 -9999 -9999 -9999 -9999 101.729 101.5157 99.07182 93.36093 81.11132 88.29656 93.00916 97.54014 101.4529 104.6837 108.2535 112.322 116.188 121.7081 124.0088 120.681 116.5013 115.5819 107.7345 106.7554 111.44 122.4987 135.5586 138.5022 137.9357 135.4593 134.1644 134.9243 132.9873 131.3202 128.8172 130.64 135.0737 137.6251 140.6043 -9999 -9999 -9999 -9999 -9999 -9999 -9999 -9999 -9999 -9999 -9999 -9999 
-9999 26.2519 38.56302 42.72085 40.20457 30.6657 30.91376 37.4374 51.92708 55.51 59.79176 55.41436 52.83 56.28523 61.26549 65.03015 72.94011 78.173 79.04769 78.55704 79.70188 79.5689 84.19476 87.05247 -9999 -9999 -9999 -9999 -9999 -9999 -9999 -9999 -9999 -9999 -9999 -9999 -9999 102.0337 100.0079 95.02998 92.47944 83.38648 87.96474 97.33505 102.5515 105.8946 108.0643 110.2325 113.2274 116.9569 121.5093 123.1607 111.6502 107.493 104.7072 106.0228 111.7038 118.1325 125.2387 130.2135 132.2338 137.134 138.6067 138.1551 137.3294 134.3352 131.9597 131.6468 135.2319 137.8497 140.2163 -9999 -9999 -9999 -9999 -9999 -9999 -9999 -9999 -9999 -9999 -9999 -9999 -9999 
-9999 -9999 26.2519 30.15488 34.39552 23.13693 30.32561 45.28909 52.11762 55.75551 63.36771 67.05808 70.34883 74.48473 72.91997 73.29559 78.64149 84.0259 84.73396 84.5831 84.79355 83.98103 86.47819 -9999 -9999 -9999 -9999 -9999 -9999 -9999 -9999 -9999 -9999 -9999 -9999 -9999 102.8321 101.6547 99.65781 99.50484 96.96564 86.06257 84.27503 98.46313 102.4913 105.0272 107.2145 109.462 109.7152 115.524 120.6644 119.7759 105.3262 102.4472 102.9232 111.6081 121.4918 124.9638 122.2154 122.4794 126.1812 136.6518 136.6367 137.4749 135.9422 134.5788 133.3687 135.1865 139.727 -9999 -9999 -9999 -9999 -9999 -9999 -9999 -9999 -9999 -9999 -9999 -9999 -9999 -9999 -9999 
-9999 -9999 26.45762 26.2519 33.82339 19.7038 29.64557 43.29768 48.64463 49.52716 52.76467 68.08311 73.01823 76.77149 77.96876 81.25912 83.53816 88.18961 90.0204 89.76536 87.66205 86.4855 -9999 -9999 -9999 -9999 -9999 -9999 -9999 -9999 -9999 -9999 -9999 -9999 -9999 -9999 -9999 103.8465 104.2356 102.8286 93.19186 89.26115 87.43372 89.41317 98.28794 101.3679 104.8995 108.6855 103.5228 115.1511 120.7905 108.5908 100.548 103.2598 111.0085 116.1305 114.3245 116.4374 116.6534 119.7599 124.4889 131.5424 133.858 134.2537 134.4061 134.506 135.9431 139.8285 -9999 -9999 -9999 -9999 -9999 -9999 -9999 -9999 -9999 -9999 -9999 -9999 -9999 -9999 -9999 -9999 
-9999 -9999 -9999 32.11604 24.9839 19.98081 29.23676 37.40192 38.28103 50.3751 63.05076 68.09031 74.07246 74.5226 75.95453 81.9892 85.86955 90.85038 -9999 -9999 -9999 -9999 -9999 -9999 -9999 -9999 -9999 -9999 -9999 -9999 -9999 -9999 -9999 -9999 -9999 -9999 -9999 -9999 107.2472 103.0094 98.1678 100.6449 94.71686 87.36463 93.59055 97.72004 101.9863 102.9173 99.00594 109.6768 108.161 104.4918 100.6084 105.5148 113.816 113.6533 112.3086 112.5739 115.1164 120.7977 126.3099 130.575 130.3773 129.5089 131.1666 135.346 141.1793 -9999 -9999 -9999 -9999 -9999 -9999 -9999 -9999 -9999 -9999 -9999 -9999 -9999 -9999 -9999 -9999 -9999 
-9999 -9999 20.75582 26.86504 24.48047 18.50845 24.69957 39.10285 51.20058 57.39745 64.02516 66.58069 68.83534 69.40736 78.25103 86.95702 87.7393 -9999 -9999 -9999 -9999 -9999 -9999 -9999 -9999 -9999 -9999 -9999 -9999 -9999 -9999 -9999 -9999 -9999 -9999 -9999 -9999 -9999 108.6869 106.3761 105.5379 101.4785 94.96223 90.68282 88.50314 88.88303 91.50914 96.16421 95.79535 100.4883 100.3585 98.83731 102.0333 104.7045 107.291 109.8047 111.7085 115.0909 118.01 125.1902 129.8694 129.6135 126.9607 125.9539 129.3617 135.7359 140.1489 -9999 -9999 -9999 -9999 -9999 -9999 -9999 -9999 -9999 -9999 -9999 -9999 -9999 -9999 -9999 -9999 -9999 
-9999 22.43642 21.15211 19.55824 20.85629 17.57267 23.17877 41.68104 52.56504 57.08022 61.54608 62.59277 62.05387 74.55192 80.0657 85.85024 89.80045 -9999 -9999 -9999 -9999 -9999 -9999 -9999 -9999 -9999 -9999 -9999 -9999 -9999 -9999 -9999 -9999 -9999 -9999 -9999 -9999 -9999 113.5187 112.2959 108.1414 100.9466 100.4565 98.45152 101.0713 97.42709 97.38141 91.77548 91.79442 95.5909 95.72578 99.03355 107.9104 111.438 110.8034 112.2596 115.5705 120.3868 123.4882 127.7012 129.9116 125.6015 123.2544 124.643 129.1665 135.3389 -9999 -9999 -9999 -9999 -9999 -9999 -9999 -9999 -9999 -9999 -9999 -9999 -9999 -9999 -9999 -9999 -9999 -9999 
-9999 -9999 22.45398 17.34418 17.55097 17.98347 22.80695 44.07946 50.83389 53.61887 58.95072 54.74761 69.39932 75.60096 84.88519 87.16357 -9999 -9999 -9999 -9999 -9999 -9999 -9999 -9999 -9999 -9999 -9999 -9999 -9999 -9999 -9999 -9999 -9999 -9999 -9999 -9999 -9999 -9999 118.3099 114.2226 108.3944 105.5972 107.1432 104.7594 106.1274 98.98859 101.4268 93.60303 93.79931 97.10806 97.74808 100.0763 103.0195 107.8173 112.2414 114.9915 120.0496 124.6493 130.1198 130.4848 126.8141 121.9031 123.1372 128.7702 133.6083 134.5121 -9999 -9999 -9999 -9999 -9999 -9999 -9999 -9999 -9999 -9999 -9999 -9999 -9999 -9999 -9999 -9999 -9999 -9999 
-9999 -9999 16.05611 20.56213 20.56351 20.0102 23.42258 41.54027 49.00666 48.13138 50.95727 60.70925 69.69563 79.6174 84.67159 88.73284 -9999 -9999 -9999 -9999 -9999 -9999 -9999 -9999 -9999 -9999 -9999 -9999 -9999 -9999 -9999 -9999 -9999 -9999 -9999 -9999 -9999 -9999 120.168 116.2783 110.7105 113.1578 107.9611 111.4765 108.6757 101.2864 104.6374 104.0343 99.37381 102.0315 104.801 106.071 104.7931 106.4138 109.5161 112.874 120.528 127.8547 130.1348 128.2026 123.2433 121.5595 126.0023 135.1784 -9999 -9999 -9999 -9999 -9999 -9999 -9999 -9999 -9999 -9999 -9999 -9999 -9999 -9999 -9999 -9999 -9999 -9999 -9999 -9999 
-9999 -9999 -9999 -9999 22.53592 21.57002 22.34229 27.347 35.4406 36.02646 47.11393 63.38634 72.2734 82.71004 85.83497 -9999 -9999 -9999 -9999 -9999 -9999 -9999 -9999 -9999 -9999 -9999 -9999 -9999 -9999 -9999 -9999 -9999 -9999 -9999 -9999 -9999 -9999 122.7888 121.4395 118.4121 120.6862 120.7812 119.3308 114.3076 108.1311 105.2983 110.9281 110.0916 103.4658 106.1902 113.6021 113.8399 109.2558 110.4521 113.553 113.2209 117.867 127.6069 125.7417 121.2879 120.7559 123.368 131.5722 136.607 -9999 -9999 -9999 -9999 -9999 -9999 -9999 -9999 -9999 -9999 -9999 -9999 -9999 -9999 -9999 -9999 -9999 -9999 -9999 -9999 
-9999 -9999 -9999 -9999 -9999 21.22727 21.22727 24.06077 30.22675 41.71201 55.47714 67.66756 76.17298 85.2332 -9999 -9999 -9999 -9999 -9999 -9999 -9999 -9999 -9999 -9999 -9999 -9999 -9999 -9999 -9999 -9999 -9999 -9999 -9999 -9999 -9999 -9999 122.9887 122.8192 122.3914 123.1913 127.3704 132.127 128.1969 118.108 112.6458 112.4072 112.8371 108.9108 104.3658 111.7106 118.1338 117.406 111.9719 113.5348 117.4971 117.788 117.1337 121.8441 120.706 120.3986 124.4451 128.7196 131.0739 134.4366 -9999 -9999 -9999 -9999 -9999 -9999 -9999 -9999 -9999 -9999 -9999 -9999 -9999 -9999 -9999 -9999 -9999 -9999 -9999 -9999 
-9999 -9999 -9999 -9999 -9999 21.22727 21.62218 23.30699 26.90853 45.26033 60.88824 72.39607 80.3288 -9999 -9999 -9999 -9999 -9999 -9999 -9999 -9999 -9999 -9999 -9999 -9999 -9999 -9999 -9999 -9999 -9999 -9999 -9999 -9999 -9999 -9999 -9999 -9999 -9999 -9999 -9999 -9999 131.765 125.1249 117.5906 117.0467 113.4708 109.716 107.7742 109.2293 118.0616 120.8862 118.0653 113.1189 114.6119 120.1741 123.1153 119.7316 119.0675 120.1744 122.5759 127.6005 131.5355 134.0118 -9999 -9999 -9999 -9999 -9999 -9999 -9999 -9999 -9999 -9999 -9999 -9999 -9999 -9999 -9999 -9999 -9999 -9999 -9999 -9999 -9999 
-9999 -9999 -9999 -9999 -9999 -9999 -9999 23.89161 23.34431 46.00681 61.77289 72.63524 79.1497 -9999 -9999 -9999 -9999 -9999 -9999 -9999 -9999 -9999 -9999 -9999 -9999 -9999 -9999 -9999 -9999 -9999 -9999 -9999 -9999 -9999 -9999 -9999 -9999 -9999 -9999 -9999 -9999 123.7693 116.1712 114.4381 113.4207 110.5961 108.2055 109.8355 113.1358 120.0051 120.811 118.5955 113.932 114.8779 122.033 123.9176 123.0452 121.5464 125.3591 128.4153 131.915 134.0113 -9999 -9999 -9999 -9999 -9999 -9999 -9999 -9999 -9999 -9999 -9999 -9999 -9999 -9999 -9999 -9999 -9999 -9999 -9999 -9999 -9999 -9999 
-9999 -9999 -9999 -9999 -9999 -9999 -9999 23.8098 23.34431 38.56391 59.93504 71.02729 -9999 -9999 -9999 -9999 -9999 -9999 -9999 -9999 -9999 -9999 -9999 -9999 -9999 -9999 -9999 -9999 -9999 -9999 -9999 -9999 -9999 -9999 -9999 -9999 -9999 -9999 -9999 -9999 -9999 116.1321 113.8606 111.9082 110.7766 110.1505 111.141 113.6854 117.8525 122.3709 122.4325 119.8261 114.6552 117.689 124.9273 127.458 126.0354 127.9883 132.0318 133.5034 133.838 -9999 -9999 -9999 -9999 -9999 -9999 -9999 -9999 -9999 -9999 -9999 -9999 -9999 -9999 -9999 -9999 -9999 -9999 -9999 -9999 -9999 -9999 -9999 
-9999 -9999 -9999 -9999 -9999 -9999 -9999 24.15814 23.92812 23.34431 58.04383 -9999 -9999 -9999 -9999 -9999 -9999 -9999 -9999 -9999 -9999 -9999 -9999 -9999 -9999 -9999 -9999 -9999 -9999 -9999 -9999 -9999 -9999 -9999 -9999 -9999 -9999 -9999 -9999 -9999 -9999 116.4058 115.6853 114.5732 115.397 112.5533 114.3386 118.4274 121.8906 125.1434 124.8084 121.0046 116.2842 122.547 126.6951 129.558 130.9025 133.5541 134.4975 135.6726 -9999 -9999 -9999 -9999 -9999 -9999 -9999 -9999 -9999 -9999 -9999 -9999 -9999 -9999 -9999 -9999 -9999 -9999 -9999 -9999 -9999 -9999 -9999 -9999 
-9999 -9999 -9999 -9999 -9999 -9999 -9999 -9999 24.0285 23.34431 47.69654 -9999 -9999 -9999 -9999 -9999 -9999 -9999 -9999 -9999 -9999 -9999 -9999 -9999 -9999 -9999 -9999 -9999 -9999 -9999 -9999 -9999 -9999 -9999 -9999 -9999 -9999 -9999 -9999 -9999 -9999 118.4422 120.0244 119.7369 121.0256 115.3509 116.2705 122.2423 124.6007 125.3849 123.6168 118.6034 118.9801 126.7122 128.9752 132.6032 135.1343 135.8712 -9999 -9999 -9999 -9999 -9999 -9999 -9999 -9999 -9999 -9999 -9999 -9999 -9999 -9999 -9999 -9999 -9999 -9999 -9999 -9999 -9999 -9999 -9999 -9999 -9999 -9999 
-9999 -9999 -9999 -9999 -9999 -9999 -9999 -9999 24.2555 24.31607 32.15599 -9999 -9999 -9999 -9999 -9999 -9999 -9999 -9999 -9999 -9999 -9999 -9999 -9999 -9999 -9999 -9999 -9999 -9999 -9999 -9999 -9999 -9999 -9999 -9999 -9999 -9999 -9999 -9999 -9999 -9999 -9999 124.4661 124.3731 121.4617 117.1497 116.1959 120.7802 127.6044 125.4552 121.1475 120.947 123.5355 128.7308 131.5348 135.0115 136.7851 -9999 -9999 -9999 -9999 -9999 -9999 -9999 -9999 -9999 -9999 -9999 -9999 -9999 -9999 -9999 -9999 -9999 -9999 -9999 -9999 -9999 -9999 -9999 -9999 -9999 -9999 -9999 
-9999 -9999 -9999 -9999 -9999 -9999 -9999 -9999 24.72163 24.35213 25.28362 -9999 -9999 -9999 -9999 -9999 -9999 -9999 -9999 -9999 -9999 -9999 -9999 -9999 -9999 -9999 -9999 -9999 -9999 -9999 -9999 -9999 -9999 -9999 -9999 -9999 -9999 -9999 -9999 -9999 -9999 -9999 127.0056 125.219 121.2366 118.1024 116.4816 121.3488 129.5197 128.0558 124.9447 125.1665 127.6162 130.5864 133.7776 136.1606 -9999 -9999 -9999 -9999 -9999 -9999 -9999 -9999 -9999 -9999 -9999 -9999 -9999 -9999 -9999 -9999 -9999 -9999 -9999 -9999 -9999 -9999 -9999 -9999 -9999 -9999 -9999 -9999 
-9999 -9999 -9999 -9999 -9999 -9999 -9999 -9999 -9999 -9999 -9999 -9999 -9999 -9999 -9999 -9999 -9999 -9999 -9999 -9999 -9999 -9999 -9999 -9999 -9999 -9999 -9999 -9999 -9999 -9999 -9999 -9999 -9999 -9999 -9999 -9999 -9999 -9999 -9999 -9999 -9999 -9999 126.8353 124.4463 120.3568 117.3445 117.5822 121.8981 130.2892 131.1777 129.4296 128.9348 130.4483 133.1742 135.7892 -9999 -9999 -9999 -9999 -9999 -9999 -9999 -9999 -9999 -9999 -9999 -9999 -9999 -9999 -9999 -9999 -9999 -9999 -9999 -9999 -9999 -9999 -9999 -9999 -9999 -9999 -9999 -9999 -9999 
-9999 -9999 -9999 -9999 -9999 -9999 -9999 -9999 -9999 -9999 -9999 -9999 -9999 -9999 -9999 -9999 -9999 -9999 -9999 -9999 -9999 -9999 -9999 -9999 -9999 -9999 -9999 -9999 -9999 -9999 -9999 -9999 -9999 -9999 -9999 -9999 -9999 -9999 -9999 -9999 -9999 -9999 127.0383 123.806 120.5956 118.7852 121.0478 124.6119 131.5412 132.8148 131.3395 132.0416 133.9618 135.9005 -9999 -9999 -9999 -9999 -9999 -9999 -9999 -9999 -9999 -9999 -9999 -9999 -9999 -9999 -9999 -9999 -9999 -9999 -9999 -9999 -9999 -9999 -9999 -9999 -9999 -9999 -9999 -9999 -9999 -9999 
-9999 -9999 -9999 -9999 -9999 -9999 -9999 -9999 -9999 -9999 -9999 -9999 -9999 -9999 -9999 -9999 -9999 -9999 -9999 -9999 -9999 -9999 -9999 -9999 -9999 -9999 -9999 -9999 -9999 -9999 -9999 -9999 -9999 -9999 -9999 -9999 -9999 -9999 -9999 -9999 -9999 -9999 127.4821 124.3853 120.7806 121.0226 124.2721 127.0706 131.6816 133.2738 133.7805 135.0276 136.3549 -9999 -9999 -9999 -9999 -9999 -9999 -9999 -9999 -9999 -9999 -9999 -9999 -9999 -9999 -9999 -9999 -9999 -9999 -9999 -9999 -9999 -9999 -9999 -9999 -9999 -9999 -9999 -9999 -9999 -9999 -9999 
-9999 -9999 -9999 -9999 -9999 -9999 -9999 -9999 -9999 -9999 -9999 -9999 -9999 -9999 -9999 -9999 -9999 -9999 -9999 -9999 -9999 -9999 -9999 -9999 -9999 -9999 -9999 -9999 -9999 -9999 -9999 -9999 -9999 -9999 -9999 -9999 -9999 -9999 -9999 -9999 -9999 -9999 127.9242 124.2906 122.9159 125.2485 128.5729 131.3956 132.3001 134.2508 135.7352 -9999 -9999 -9999 -9999 -9999 -9999 -9999 -9999 -9999 -9999 -9999 -9999 -9999 -9999 -9999 -9999 -9999 -9999 -9999 -9999 -9999 -9999 -9999 -9999 -9999 -9999 -9999 -9999 -9999 -9999 -9999 -9999 -9999 
-9999 -9999 -9999 -9999 -9999 -9999 -9999 -9999 -9999 -9999 -9999 -9999 -9999 -9999 -9999 -9999 -9999 -9999 -9999 -9999 -9999 -9999 -9999 -9999 -9999 -9999 -9999 -9999 -9999 -9999 -9999 -9999 -9999 -9999 -9999 -9999 -9999 -9999 -9999 -9999 -9999 -9999 126.8378 125.3939 127.2179 130.6046 131.9966 132.4063 134.0732 135.6774 -9999 -9999 -9999 -9999 -9999 -9999 -9999 -9999 -9999 -9999 -9999 -9999 -9999 -9999 -9999 -9999 -9999 -9999 -9999 -9999 -9999 -9999 -9999 -9999 -9999 -9999 -9999 -9999 -9999 -9999 -9999 -9999 -9999 -9999 
-9999 -9999 -9999 -9999 -9999 -9999 -9999 -9999 -9999 -9999 -9999 -9999 -9999 -9999 -9999 -9999 -9999 -9999 -9999 -9999 -9999 -9999 -9999 -9999 -9999 -9999 -9999 -9999 -9999 -9999 -9999 -9999 -9999 -9999 -9999 -9999 -9999 -9999 -9999 -9999 -9999 -9999 -9999 127.6329 129.8637 -9999 132.9909 134.9833 -9999 -9999 -9999 -9999 -9999 -9999 -9999 -9999 -9999 -9999 -9999 -9999 -9999 -9999 -9999 -9999 -9999 -9999 -9999 -9999 -9999 -9999 -9999 -9999 -9999 -9999 -9999 -9999 -9999 -9999 -9999 -9999 -9999 -9999 -9999 -9999 
