ncols 100
nrows 38
xllcorner 0
yllcorner 0
cellsize 10.0
7.494297770287219884e-02 3.971138989542163245e+01 3.483019488864714930e+01 2.863883053719438365e+01 2.348350458303098520e+01 2.125482821158253444e+01 2.196736172514898655e+01 2.013477892971894079e+01 1.705189954895810089e+01 1.369744580136643819e+01 1.218955874374144166e+01 1.284306272381037672e+01 1.088406267268345395e+01 1.554810212341785380e+01 1.956231301947198986e+01 2.192668348984614113e+01 2.705080164797913866e+01 2.636899225289300830e+01 1.949693613193961994e+01 1.439490209235083640e+01 1.308089791522150236e+01 1.115804702258501280e+01 1.323324115865026762e+01 1.138312564618710709e+01 1.396004703873467889e+01 1.681356345854311840e+01 2.141511781167150374e+01 1.893939173119526842e+01 1.364482114690957815e+01 1.567119599381033623e+01 1.549381974843669596e+01 1.298089618787933119e+01 1.563153288588565459e+01 1.571289224468279855e+01 1.251704396052773305e+01 1.268043685528961007e+01 1.562516536046824456e+01 1.736159348670451052e+01 1.667959658238281406e+01 1.287753275943083509e+01 1.271990724661746697e+01 1.328558589587871452e+01 1.712887675350560102e+01 1.738439383705787122e+01 1.394614510558498033e+01 1.301539540521199001e+01 1.372795303216314267e+01 1.463528927654560263e+01 1.924318264062135597e+01 2.344171177082418112e+01 2.785594510341119445e+01 3.188151889063336597e+01 3.701016181134653493e+01 3.780724227388247982e+01 3.365259469809327442e+01 2.853432941560431146e+01 3.248448382648339816e+01 3.139044958611986402e+01 2.631586681426816554e+01 2.399957473260771934e+01 2.807387160583162000e+01 3.200108441742872145e+01 3.436391817536322435e+01 3.981675406180341525e+01 4.513751780505941014e+01 5.176633795927483561e+01 5.592552069080424815e+01 5.299865291709250670e+01 4.919991184484345581e+01 4.767877025657227819e+01 4.344398237481569680e+01 4.874429387506346245e+01 5.435828755151469238e+01 4.950143348865134385e+01 4.692765340047398581e+01 4.489480661081165636e+01 4.273259284810133352e+01 4.442476458104434300e+01 4.259591202360192597e+01 3.694348844879084481e+01 3.337992182541006514e+01 3.021663568620733287e+01 3.518408377535821785e+01 4.155911628645263534e+01 4.687492063375132290e+01 4.994086549105989548e+01 5.344819047345110619e+01 5.456563404485979873e+01 5.240412199702079477e+01 4.935079917527549753e+01 4.848523899735280196e+01 4.794230327538957681e+01 5.236129943822813004e+01 5.942037360837963433e+01 6.637354083588009246e+01 6.618282912473839019e+01 6.839266376864755159e+01 7.135286480631958739e+01 7.514654190566342606e+01 1.740335600928011317e-02
5.538177204173176660e-02 3.714579963289860842e+01 3.119075414053004636e+01 2.668231456924395673e+01 2.758865770567183873e+01 2.666175760264811245e+01 2.673487372055663158e+01 2.173798384255035288e+01 1.770601909494996562e+01 1.765483347693848870e+01 1.563023400609201374e+01 1.230811487908111701e+01 1.021655334373726554e+01 1.349880749235083499e+01 1.514871637745752508e+01 2.017770851967739532e+01 2.625656875207533147e+01 2.603648956863021624e+01 1.940040804074251923e+01 1.298115535252692609e+01 9.974527739530099524e+00 1.365694629153899520e+01 1.700806309760675106e+01 1.494716418503735156e+01 1.559946465732660315e+01 2.025390772183455113e+01 2.543195445855506875e+01 2.279115897138603231e+01 1.773812346965837605e+01 2.099887276621736376e+01 1.954357805116097424e+01 1.533057657387288941e+01 1.206236979573461277e+01 1.163876845928474602e+01 1.539389065161187453e+01 1.722621735160842604e+01 1.855683351670745651e+01 2.261453223339946561e+01 2.138630991182708740e+01 1.642325827512649283e+01 1.736649513122914712e+01 1.640824239126003192e+01 1.373209284778832107e+01 1.332363552520260264e+01 1.704255976752308044e+01 1.885961457806930497e+01 1.818989622659525196e+01 1.484358944138388381e+01 1.761147411784969208e+01 1.911370211110476447e+01 2.379854645144800429e+01 2.944385211993994744e+01 3.170896174002039558e+01 3.151138576997060881e+01 2.966900853818995287e+01 2.477627321706380314e+01 2.839765225858301889e+01 2.645607875436591883e+01 2.391283689792324907e+01 2.721502364102147098e+01 3.035997636787294951e+01 3.612862623142024177e+01 4.008427003298505298e+01 4.409814952248153475e+01 4.949795556655355000e+01 5.424651352482452182e+01 5.480106270382269429e+01 4.907348289994341428e+01 4.431735296682411018e+01 4.341858054084303831e+01 3.982534310654933307e+01 4.483636960228707835e+01 4.871380392932453418e+01 4.897648618274507726e+01 4.617394109195461738e+01 4.509261709479353897e+01 4.526150503978735884e+01 4.803955631038150642e+01 4.641124078985379242e+01 4.055853312190419757e+01 3.344461154168357808e+01 2.875633023205803340e+01 3.240931773816048178e+01 3.814129329725967921e+01 4.474626841359639684e+01 5.035991860630846162e+01 5.235247254380634274e+01 4.961336994643229303e+01 4.596317081678449767e+01 4.423750875394603099e+01 4.350853679191619960e+01 4.730431576825846918e+01 5.356484304011249975e+01 5.837726013310255269e+01 6.185521725572659335e+01 5.989356680871952676e+01 6.339846802158957928e+01 6.760033509754261161e+01 7.188891408006035988e+01 1.773745726026544275e-02
8.123091546170205235e-02 3.957468011261980223e+01 3.421938430594968139e+01 2.975933472244360445e+01 3.289766469995824849e+01 3.040532527931843276e+01 2.503083706916581619e+01 2.155917187295946391e+01 2.233201866889176301e+01 2.167807274328393063e+01 1.710346783870802412e+01 1.682353754329535889e+01 1.376416867259778343e+01 1.126160770377780374e+01 1.357635628459757804e+01 1.683362780236678091e+01 2.134782185511148711e+01 2.408350261148184046e+01 2.065610337499762750e+01 1.421336655213109168e+01 1.021281859828595984e+01 1.358614373587369073e+01 1.798656002353078875e+01 2.051051384324278359e+01 2.098750505239015851e+01 2.247745148118331215e+01 2.736891387792216790e+01 2.679873793949601790e+01 2.270266725309645750e+01 2.429748329322560707e+01 1.998564066035241993e+01 1.566408994293827561e+01 1.519243521782882844e+01 1.317309273505939515e+01 1.717070177304248801e+01 2.172858932049782510e+01 2.376408945066894063e+01 2.692964892086585138e+01 2.610261087311873140e+01 2.185061266991311157e+01 2.209273068232140602e+01 1.858869470443713823e+01 1.738150625955450579e+01 1.471887186667825986e+01 1.917971100793545958e+01 2.498975157028491978e+01 2.331480274726012070e+01 1.856667403896618040e+01 1.488601315896032418e+01 1.826824809250527792e+01 2.427017370789648254e+01 2.710820784371706438e+01 2.509289476352981296e+01 2.597580415236007667e+01 2.598344976611600998e+01 2.142098149735768686e+01 2.365442344217586879e+01 2.194811188114606182e+01 2.595122858028831914e+01 3.101397124114815185e+01 3.565262945615647538e+01 4.039684256527209527e+01 4.533588295619738062e+01 4.440585198173356218e+01 4.622520070835938810e+01 5.237001042252585137e+01 5.577733895257748031e+01 5.068157599929672585e+01 4.417185624565547641e+01 3.990322945382598618e+01 3.724765262835290969e+01 3.971559480807587050e+01 4.215065414684929834e+01 4.451681429896939335e+01 4.048765893231293944e+01 3.867576704450095804e+01 4.061130316165979082e+01 4.570920357735448647e+01 4.653186620205930524e+01 4.046252844620152445e+01 3.345238210341081242e+01 2.888677821935880274e+01 3.351907544610479306e+01 3.781216578569318187e+01 4.127996468838732369e+01 4.691272561382573514e+01 4.854715900514084836e+01 4.409328814610562119e+01 4.177891206896654097e+01 4.027955872693653561e+01 4.362987276384298241e+01 4.880895764529753222e+01 5.116703432252676720e+01 5.244408942946596852e+01 5.540646443182122027e+01 5.493926683319695314e+01 5.815476890898607110e+01 6.275233902382009887e+01 6.875029201212150554e+01 4.533637130032299595e-02
1.341851910302127538e-03 4.142613639366917511e+01 3.632837067171183065e+01 3.480811016579767170e+01 3.726222888339749062e+01 3.311750259231175164e+01 2.802416822556205034e+01 2.646029399559350637e+01 2.851133381887963125e+01 2.535701920622395988e+01 2.025981403207034859e+01 1.992865860105108311e+01 1.524625169227346788e+01 1.390152666308090446e+01 1.103955147391439695e+01 1.339447816592633700e+01 1.594682271083300762e+01 2.047192722371006823e+01 1.968706545749102332e+01 1.705002070025378558e+01 1.330414269767088875e+01 1.028824480946607700e+01 1.512233979662639172e+01 2.084698987888788935e+01 2.485486944598693881e+01 2.753490628200331969e+01 3.099321751781411649e+01 3.168061139932072123e+01 2.835278244604365838e+01 2.455237068677981682e+01 1.936750704123465283e+01 1.990818853227380814e+01 1.878859189838656363e+01 1.769084233872185763e+01 1.605025364110618824e+01 1.980643886295590050e+01 2.364124426918145261e+01 2.788870091603780565e+01 3.044573307333026335e+01 2.837098051510898955e+01 2.570451909336496854e+01 2.377987146109349226e+01 2.136286059885507171e+01 1.753509729008801088e+01 2.174463544269857351e+01 2.780263078431777046e+01 2.689909967656799594e+01 2.004127167090057426e+01 1.520965223707653635e+01 1.787667379741233020e+01 2.023149318947647402e+01 2.091819699752575445e+01 1.958300496415644787e+01 2.349628842539154050e+01 2.273075682126313524e+01 1.942639770971111801e+01 2.003488083489106941e+01 2.120365672207420715e+01 2.600157665827422804e+01 3.077257513999967387e+01 3.734771305043504697e+01 4.146127531778406450e+01 4.050330936267135229e+01 3.995807347726881886e+01 4.452596509327776175e+01 5.087338244822603173e+01 5.258659776880282521e+01 5.265229624997501645e+01 4.893674120205133704e+01 4.465871767660427594e+01 4.005099653865439535e+01 3.606231153256773325e+01 3.755041867293476798e+01 4.024012969664160266e+01 3.829560992463383684e+01 3.433412429237137786e+01 3.879803109463599498e+01 4.256020556640142871e+01 4.021129517977246337e+01 3.663710614163016999e+01 3.389340063143970383e+01 2.940245509964545079e+01 3.226518389768260420e+01 3.416612141332372232e+01 3.895609377395580708e+01 4.281978891245956476e+01 4.554269434389849636e+01 4.226583516376303606e+01 3.781891985558971214e+01 4.075789120031856072e+01 4.192541037439495000e+01 4.575338118433655410e+01 4.643348950064262937e+01 4.845170697104750701e+01 5.154508811636209487e+01 5.632122809159956489e+01 6.191113773075807813e+01 6.556812806340471411e+01 7.127591071387060140e+01 2.776309839987397415e-02
2.541032332596551008e-02 4.494745805494311952e+01 4.180878560139248634e+01 4.133620797290133453e+01 4.213761072523252693e+01 3.731130852752842486e+01 3.384483018986673386e+01 3.298545159381529857e+01 3.245650703322597508e+01 2.762912711061628102e+01 2.521660139515313759e+01 2.445623790030147049e+01 1.979980280251077573e+01 1.803193989684778487e+01 1.339656656958396752e+01 9.922589792213086568e+00 1.419624385862072913e+01 1.678993788703120771e+01 1.395421027998645869e+01 1.370347255776650641e+01 1.249475671377358132e+01 9.324821001170276347e+00 1.215303150209529193e+01 1.700959289676512043e+01 2.273689435079191767e+01 2.819572902358876121e+01 3.128662443266721382e+01 3.405463073157007159e+01 3.176979452325603859e+01 2.597847831400703456e+01 2.215005718669417689e+01 2.586263510060799931e+01 2.452351518827713761e+01 2.275197393843936311e+01 1.895379535722907605e+01 1.748607907564105446e+01 1.999390331655057196e+01 2.540827146463145425e+01 3.151681099396550678e+01 3.426342490234947036e+01 3.163747690587743477e+01 2.738343348122185006e+01 2.252800792578869249e+01 2.169065183011007392e+01 2.699678895838043857e+01 3.080004714606834426e+01 2.642077720615669278e+01 2.041265819426209660e+01 1.799952136573666905e+01 1.421047890387591295e+01 1.501228548102503524e+01 1.594867522890263700e+01 1.669267410114497352e+01 2.017153266287234814e+01 1.964351920974436183e+01 2.300424174782738262e+01 2.535940012452480374e+01 2.619615986559148979e+01 2.514974250393151323e+01 2.906751644303113125e+01 3.453389465930513325e+01 3.627683021094080829e+01 3.589917728997179580e+01 3.948496309832265183e+01 4.576495951644883320e+01 4.862753221569122530e+01 4.667664618051555436e+01 4.979491668627235157e+01 5.101017377511113438e+01 4.753253948770217363e+01 4.353456957678311312e+01 3.794292857490060555e+01 3.366813960081368151e+01 3.497666604879378838e+01 3.510369135492633319e+01 3.118088994433856342e+01 3.615603234288288803e+01 3.850215927461585608e+01 3.403263001738108073e+01 3.182922899821551610e+01 3.435549706866520125e+01 3.153496604364928757e+01 2.989651502261472871e+01 3.340508645463931714e+01 3.551635487985687689e+01 3.727881276448743364e+01 4.147425312389066931e+01 4.030619638486873413e+01 3.609315087849304859e+01 4.074975060270239169e+01 4.462743966418587860e+01 4.485636380338721807e+01 4.842833792711605412e+01 5.320780213413914339e+01 5.560140243449113484e+01 5.792625308857716959e+01 6.394477128814175160e+01 6.888979486099067628e+01 7.434473529405954650e+01 6.750208996811837836e-02
7.366858460645148154e-02 4.533759165903148158e+01 4.226619764388325251e+01 4.184750282490605144e+01 3.804696330733173681e+01 3.416875768326242735e+01 3.288030573584012473e+01 3.481591149334853696e+01 3.543884378118217882e+01 3.293693826258540014e+01 3.144439114940846736e+01 2.971316494481667903e+01 2.563528746859611118e+01 2.083698542231617523e+01 1.347465960872859725e+01 8.736636086442775451e+00 1.303852435840691193e+01 1.280036676400453644e+01 9.474336523997532566e+00 9.003002363886221104e+00 9.306064731925408395e+00 1.208947137580589271e+01 1.506534755134586057e+01 1.945494409295631755e+01 2.407540120870454814e+01 2.513857546830026024e+01 2.681906974493191598e+01 3.196502709760375183e+01 3.429294024156071430e+01 3.128156998253380294e+01 2.725850496296395420e+01 3.088324398690696171e+01 3.011502223987289284e+01 2.411669868073930445e+01 1.919208422661758817e+01 2.149451406529094299e+01 2.397469888859986042e+01 2.461553929594568757e+01 2.985088417162031860e+01 3.593453445162572990e+01 3.472234839036877219e+01 2.953990134000594736e+01 2.724351990797001122e+01 2.775253658890030195e+01 3.177436294236831671e+01 3.281886376302826136e+01 2.736272589270697964e+01 2.401759699030630202e+01 1.973148509638460268e+01 1.472717500869124052e+01 1.855463525383662571e+01 2.091627065978070377e+01 2.106626444570271417e+01 1.898282508439885063e+01 2.148085689147682231e+01 2.608799343985054264e+01 3.037767056408607402e+01 3.177613261195277161e+01 2.938734382672479128e+01 2.722783556916064640e+01 3.056072344556845621e+01 3.218097307337095003e+01 3.715185866296882722e+01 4.355292443122093005e+01 4.799217947525461625e+01 4.550300608097469990e+01 4.099302143612576543e+01 4.469324748118964408e+01 4.641633804126407625e+01 4.309969745912407291e+01 4.455948061857215237e+01 4.041757438480181008e+01 3.503089281660533771e+01 3.094472517818215351e+01 3.105201019262263173e+01 2.834939325309349911e+01 3.343754165592085315e+01 3.536159889667498391e+01 3.174270339673719121e+01 2.872195140433838034e+01 3.102953947973761117e+01 2.921562586003449979e+01 3.129869196177976676e+01 3.282961594466701172e+01 3.184390755041189891e+01 3.469979736614697430e+01 3.703060893259295483e+01 3.714711326315666184e+01 3.522435733390816637e+01 3.973621154920795107e+01 4.599289949405140021e+01 4.924621919487290000e+01 5.358363873211524719e+01 5.755911191981165587e+01 5.689929245018675630e+01 5.634460360159993542e+01 5.900117716965675640e+01 6.494338436313076102e+01 7.020904798643195477e+01 6.751368326402029663e-02
3.474999955651238842e-02 4.216820893037365181e+01 3.693546149998965689e+01 3.524200414158669048e+01 3.215881433013765900e+01 2.791268122186333400e+01 2.620001070132919807e+01 2.883634822271287135e+01 3.211230759435735393e+01 3.273256851452411098e+01 3.040606880690870639e+01 3.008918424685066384e+01 2.669902451060037052e+01 2.189878392580032695e+01 1.397665511381617875e+01 8.338449340208050842e+00 1.181228960511499793e+01 9.256551599127133656e+00 1.232841847898936827e+01 1.331942573708228039e+01 1.218476083673920840e+01 1.052606889469616824e+01 1.207284209447197121e+01 1.633986495391561533e+01 1.923545066291446659e+01 2.020223740909054300e+01 2.486255328629628281e+01 2.926939695448039913e+01 3.318279479954384215e+01 3.498438377010401723e+01 3.284454072008897185e+01 3.464930716694941992e+01 2.928608607733505309e+01 2.352047822862117599e+01 2.076101116510349343e+01 2.479817583993125751e+01 2.967076163791854881e+01 2.928893299484404977e+01 3.001841196238802922e+01 3.521669381696017354e+01 3.778643734006344346e+01 3.507240335965301625e+01 3.388556605894080320e+01 3.422013570275505856e+01 3.514850851866169990e+01 3.110483037066724421e+01 2.657964425222040816e+01 2.377231692227747573e+01 1.944146965037542429e+01 1.584196170976443341e+01 2.006655513037952687e+01 2.569041492750324807e+01 2.620166523764805078e+01 2.305633065321559627e+01 2.032043480986099837e+01 2.325156529047198006e+01 2.830226994610519853e+01 3.421881969017898939e+01 3.459962733204415031e+01 3.062204553689046094e+01 2.904522576569404890e+01 3.331774510536843081e+01 3.875648225096585975e+01 4.520628283445639539e+01 4.752470338777523295e+01 4.191440398905281484e+01 3.673569763468365323e+01 3.787905870454419954e+01 4.041367105094309409e+01 3.818554647424601001e+01 3.853672215700390780e+01 3.874499917191437248e+01 3.517121599533975029e+01 3.146467300560902558e+01 2.682505140472166971e+01 2.640363215806456054e+01 3.031211037444645129e+01 3.114007319782991345e+01 2.862765060993425692e+01 3.027657235017436577e+01 2.918574847573133724e+01 3.127716551687999669e+01 2.943799368656735638e+01 2.964197533704577836e+01 3.310452028834475158e+01 3.169905535411538722e+01 3.208487124452640415e+01 3.288996613813645808e+01 3.767043156471882526e+01 4.308633972886000407e+01 4.798355627454975547e+01 5.132913652023000850e+01 5.672281434961966085e+01 5.492541087268951117e+01 5.126359105487562573e+01 5.108077470352779414e+01 5.472719463922895500e+01 6.033030660373527354e+01 6.682386808224401875e+01 7.019212323357411354e-02
4.228991416757432731e-02 4.133229749757774130e+01 3.505711484270718614e+01 3.033918392401936615e+01 2.913034552913334352e+01 2.689326679552941002e+01 2.211189435571467499e+01 2.198087419036854939e+01 2.635873077251426366e+01 2.827541489389661677e+01 2.454246209028099912e+01 2.318516257582005835e+01 2.088347657822163228e+01 1.816973655052780146e+01 1.197620779663247603e+01 7.587795971619844870e+00 1.086935010025629822e+01 9.219225686455162716e+00 1.394443584919536150e+01 1.546101630858453113e+01 1.188393145554569053e+01 1.435398426043303388e+01 1.570389908956824243e+01 1.410056152376641236e+01 1.528728229892513113e+01 1.877972991629737720e+01 2.224185095330620854e+01 2.423349798442807668e+01 2.926716450799050762e+01 3.526979766532358695e+01 3.788446854231158767e+01 3.821586845255881570e+01 3.142822968557901930e+01 2.582580893598078831e+01 2.493264648849027054e+01 2.485510619733832982e+01 2.927489269223885060e+01 3.419812635379260968e+01 3.512623304161655824e+01 3.722688706976299500e+01 3.920859272355703240e+01 3.603943450248367952e+01 3.358251281116337594e+01 3.389811316640390970e+01 3.109946368062826494e+01 2.632637073815437034e+01 2.149322399548035989e+01 1.975764780141387433e+01 1.704133149055722996e+01 1.923909804412278746e+01 1.998692782734866213e+01 2.413614605251832046e+01 2.934863743630494781e+01 2.766447932724877745e+01 2.340626403227511432e+01 2.626987505203341655e+01 2.905219438754851780e+01 3.531861071288081177e+01 3.986740152715638885e+01 3.695914521976813916e+01 3.231089216297741018e+01 3.490984558766655255e+01 4.063892476912749885e+01 4.371728840780691172e+01 4.129331708783326604e+01 3.774095797403831654e+01 3.545934850789713266e+01 3.219174034516108662e+01 3.643239505961087588e+01 3.712004857073839048e+01 3.335010729654278094e+01 3.254544017251997445e+01 2.956692027763633845e+01 2.925779606005956524e+01 2.663078480687529037e+01 2.934632223339437829e+01 2.717340670982115114e+01 2.783044066209455281e+01 3.082762095763983723e+01 3.223262819751947461e+01 3.355656532938989045e+01 3.512760184564481136e+01 3.444373087073473272e+01 3.248270373290944235e+01 3.645461025647687592e+01 3.609948104856714224e+01 3.634792771688656643e+01 3.376546564072789636e+01 3.745969127943072863e+01 4.179394316315026714e+01 4.458359027057776558e+01 4.995484578693844924e+01 5.199600766525814066e+01 4.952243377156891313e+01 4.743655725616877561e+01 5.109000070551471140e+01 5.688453971272848264e+01 6.144206084093163156e+01 6.813947808637851722e+01 5.391874117148937051e-02
2.893750891725621610e-02 4.134127071068012782e+01 3.633565653077303637e+01 2.963627825689584938e+01 2.495840186171574970e+01 2.715086031910243136e+01 2.286772116154368462e+01 1.842990550725826537e+01 2.012465023968020006e+01 2.278721473553943966e+01 2.188383718438369030e+01 1.793154086936764458e+01 1.653898877630449249e+01 1.366777912062304878e+01 1.135769378068238389e+01 7.610106686793359110e+00 8.719588739245454079e+00 1.241862701114305523e+01 1.688538785130339193e+01 1.756780883522342052e+01 1.362947787040594605e+01 1.672182930857134409e+01 2.008367210653821289e+01 1.922725842923016515e+01 1.915320145986164135e+01 1.709781725321864698e+01 1.869098984186231860e+01 2.264129640684117106e+01 2.725393056069793118e+01 3.220415496896769980e+01 3.692456077391570091e+01 3.802527431959892112e+01 3.308587361385770009e+01 3.099529703471760200e+01 2.881379678282404910e+01 2.912002421945459929e+01 2.849925871280731826e+01 3.285889952669590741e+01 3.894429051880830883e+01 4.182048573423615778e+01 3.783935186497134850e+01 3.158966011374653959e+01 2.788250563921727121e+01 2.778552685113253773e+01 2.485011187689759637e+01 2.382764944863923517e+01 1.988073887417874630e+01 1.716948709137540163e+01 2.037253519968079019e+01 2.397739515462001236e+01 2.493878691735105235e+01 2.577102908273762694e+01 3.072960184401031114e+01 3.206941149059561269e+01 2.920268969279699434e+01 2.776597851465468736e+01 3.173132516346847609e+01 3.650489459009065740e+01 4.247445874270194111e+01 4.197494904968372964e+01 3.813117879027720392e+01 4.062996777108656943e+01 4.312820172410251729e+01 4.133473908634184113e+01 3.541401937241417386e+01 3.227292202956691369e+01 3.236294327024783968e+01 2.863742807641562749e+01 3.339979532477472901e+01 3.736080747357661380e+01 3.244264253266854325e+01 2.715096393074328773e+01 2.544504655165765428e+01 2.624386498878654805e+01 3.000196050882382792e+01 3.367290582146022615e+01 3.131894288285569417e+01 3.261002336177240579e+01 3.411726316611731136e+01 3.788086554041541376e+01 3.944739249145564486e+01 4.223594877353050236e+01 4.138587035178283458e+01 3.767447719020338326e+01 3.961545271060131768e+01 4.265576683927219648e+01 4.194283911576279422e+01 3.762426453396422232e+01 3.454361721341919633e+01 3.769995782926601890e+01 4.331123976815886323e+01 4.820660814844652009e+01 4.687070595973743536e+01 4.510269451026469767e+01 4.807661040758299720e+01 4.988499605769213474e+01 5.370029818724538728e+01 6.041585705585023192e+01 6.747604494181830148e+01 3.084909419355171684e-02
5.125576366486798985e-02 3.806820592994255747e+01 3.153925559215098673e+01 2.580730838227538015e+01 2.148173897837665436e+01 2.335170195499614465e+01 2.398099838132677775e+01 1.907689261406112635e+01 1.528437652357025911e+01 1.689637759689770036e+01 1.896143716707169347e+01 1.689200617935965454e+01 1.253777539431000321e+01 1.148147851815741127e+01 9.245194196122248798e+00 1.120086292710487186e+01 1.269626260438517917e+01 1.365859987114210838e+01 1.818130676102249055e+01 2.093764507262341468e+01 1.814069955078068475e+01 1.579165067891251439e+01 1.924973952627979301e+01 2.289745630076863137e+01 2.407649711955540539e+01 2.189898102185411588e+01 2.242913414957681084e+01 2.042233319057745078e+01 2.285588970692083777e+01 2.708316057719286007e+01 3.389713508610898174e+01 3.968865312526590117e+01 3.847220239351779725e+01 3.691038592680745012e+01 3.514195720882522522e+01 3.582945543022098178e+01 3.276576376839418714e+01 3.472995876297370899e+01 4.079830029598769414e+01 4.373636017349718230e+01 3.849607961965561032e+01 3.255116395306325927e+01 2.683102050806538585e+01 2.282652060812989703e+01 2.047576202312173876e+01 2.010030651237617860e+01 1.719855677804007854e+01 1.916132222688284159e+01 2.338090535041328977e+01 2.678477758993433255e+01 3.004131227108443269e+01 3.063069196483548851e+01 3.309821164175439634e+01 3.763264358360411421e+01 3.579878892587095152e+01 3.259148239731372598e+01 3.370525091362782177e+01 3.984373897964186284e+01 4.607550390813321428e+01 4.726677719685638834e+01 4.490861450928630205e+01 4.513649673358666803e+01 4.290100679341521328e+01 4.065122486531438994e+01 3.384905636381953542e+01 2.859305948883116599e+01 2.801329931995940470e+01 2.520699286584400767e+01 2.823763643149477787e+01 3.230172903030957343e+01 2.964506006856886344e+01 2.633031761350724054e+01 2.906964641046878484e+01 3.007071155622605829e+01 3.238129587419698652e+01 3.720494856465561639e+01 3.756600746610536135e+01 3.912258191504595572e+01 3.955994909992771369e+01 4.291293130852375270e+01 4.563170066347663578e+01 4.847095485096091494e+01 4.657311762926116927e+01 4.366095213823902554e+01 4.538275829129614181e+01 4.835026732537986049e+01 4.590359519543353883e+01 3.927484726917688107e+01 3.544017142525633091e+01 3.848701929429002178e+01 4.176974266208286224e+01 4.358118855111889189e+01 4.272266080237769614e+01 4.624655038521569850e+01 5.063488853692405911e+01 5.422370926015555881e+01 5.471050441362397976e+01 5.904996959284657976e+01 6.555018254083260842e+01 3.370123370926102202e-02
8.534095332704738635e-02 3.672448221020587056e+01 2.971236710225375077e+01 2.364932025840926144e+01 2.003095641856992160e+01 1.891216725759899475e+01 2.018842137530386083e+01 1.833644542258166865e+01 1.494206339222167301e+01 1.237622728556820029e+01 1.439323423116869627e+01 1.543759013833616578e+01 1.189207389129393277e+01 9.442915047378320992e+00 1.187649709232076489e+01 1.150206447970210988e+01 1.528736365855227852e+01 1.832178564609991156e+01 1.958142445536174847e+01 2.383750781748485181e+01 2.242977968054544036e+01 1.857967397403670162e+01 1.712191990912962325e+01 2.077913308707885420e+01 2.551379682770443935e+01 2.813581532260941032e+01 2.758979708426454636e+01 2.321621717225901449e+01 2.636539863444920684e+01 2.667374949933971706e+01 3.097090527828974516e+01 3.782262739439086374e+01 4.223122285575082913e+01 4.379500337029749346e+01 4.246526601849198101e+01 4.186181895271450060e+01 3.999877977069455426e+01 4.108798824696781793e+01 4.444241594630592118e+01 4.668420540758702941e+01 4.334009109756681966e+01 3.719844626222771922e+01 3.092959139176084449e+01 2.488588602873660349e+01 2.206722243537573647e+01 1.884511193842907772e+01 1.956796858084700119e+01 1.743415264180123714e+01 2.035819684485459646e+01 2.263427358186394400e+01 2.769898381131878295e+01 3.047021569596614299e+01 3.382737364206671771e+01 3.623917745618629738e+01 3.876408946748414053e+01 3.878590274608492194e+01 3.919787567394055117e+01 4.352548149754928630e+01 4.751011580982910232e+01 5.044924035193808010e+01 4.807199341660810177e+01 4.316072761858238493e+01 3.786471113956769585e+01 3.548354596564992391e+01 3.090185548247794500e+01 2.733317056484805363e+01 2.427720129815644157e+01 2.342272582129775316e+01 2.471893512459877229e+01 2.792654919516597545e+01 2.646620914157547588e+01 2.973095721000208158e+01 3.289654891957331984e+01 3.633200874932783364e+01 3.816873654781137759e+01 4.039289143799221193e+01 3.906851793299638587e+01 3.694078818492023686e+01 3.744725323639265469e+01 4.109570979283262915e+01 4.472085591825043593e+01 4.765109995190784531e+01 4.490640722357682080e+01 4.216565672639553242e+01 4.478967263142109800e+01 4.922665744401981414e+01 4.734270692822730098e+01 4.165045788777972291e+01 3.913937515072547768e+01 3.592093509456249478e+01 3.727572153659442478e+01 3.976819953494601378e+01 4.410523129633077133e+01 4.803199512333663534e+01 5.441676638586806547e+01 5.984046925192901512e+01 6.016370904926576202e+01 6.278446461823913438e+01 6.845273903586698339e+01 9.798229383936907233e-02
5.796984041005667082e-02 3.753381464785216792e+01 3.112380245995556649e+01 2.613006061481751274e+01 2.438008000983305124e+01 2.038182299502582850e+01 1.664222093549859594e+01 1.442157759301050035e+01 1.297330911564998246e+01 1.324236796651203640e+01 1.040680674175489706e+01 1.130674281249253355e+01 9.333680557630714247e+00 1.245058633927751401e+01 1.601048306329898452e+01 1.476627016997239750e+01 1.919137195305480148e+01 2.494828170707058845e+01 2.468466899908908374e+01 2.712627973985211938e+01 2.324114609123263619e+01 1.876468359418939613e+01 1.997168876215711819e+01 2.382321841710602328e+01 2.890154282311902634e+01 3.440872972404280006e+01 3.174227295481166422e+01 2.738996384993180300e+01 3.062253496638399142e+01 3.137013374536581978e+01 3.056762989191518187e+01 3.500988405412796567e+01 4.079067850392549133e+01 4.604347348971911202e+01 4.543841483000397119e+01 4.322406450803411815e+01 4.440502436993433122e+01 4.523986331324681487e+01 4.549800095038673220e+01 4.381183069842371225e+01 4.372468150083837202e+01 3.826871404812828104e+01 3.248424505166637744e+01 2.817722787104916193e+01 2.365537188293527038e+01 2.255077343470572515e+01 2.362584498386630827e+01 2.041341419846099114e+01 1.765178496750435500e+01 2.031080057603550415e+01 2.310448594481418283e+01 2.435522491309157900e+01 2.800314619117956383e+01 3.014590494297665657e+01 3.565181278337155391e+01 4.033433014630740132e+01 4.465877057870976330e+01 4.487056656135587218e+01 4.296243831984422457e+01 4.658341168698414947e+01 4.545701252500224143e+01 3.927851826882042019e+01 3.515033720942074069e+01 3.011828152981946971e+01 2.772332897575503097e+01 2.397082207347134641e+01 2.706685225454539534e+01 2.890173154075987227e+01 2.872208511361168704e+01 2.616693603861600792e+01 2.836726327375408374e+01 3.318608139584345906e+01 3.761334097423813461e+01 3.812474376119455144e+01 4.037536302806043409e+01 3.894860661237230204e+01 3.538953692468786727e+01 3.205598674661569447e+01 3.262084808784383227e+01 3.643575518906582289e+01 3.918831891267329581e+01 4.258183526861527923e+01 3.998752830630379407e+01 3.725017400801090162e+01 3.999693505949356620e+01 4.572544227656996441e+01 4.898317182932228775e+01 4.659180351152706834e+01 4.239088378072505492e+01 3.785370835369423048e+01 4.043901962632733671e+01 4.337551062465083618e+01 4.656680477729295831e+01 5.088813725502933494e+01 5.626504915269243412e+01 5.820737280264012270e+01 6.137533549866333971e+01 6.653002339491932560e+01 7.207857778114299663e+01 2.829392550559473030e-03
9.041221178575080397e-02 4.084658748476175560e+01 3.636220102079636973e+01 3.183004124186037842e+01 2.630912895476514990e+01 2.142696143939039999e+01 2.116213979476116691e+01 1.921349724372696244e+01 1.724360793100437306e+01 1.606344194136833181e+01 1.152761364653499854e+01 8.141484681571132143e+00 1.145560783122321524e+01 1.454421364096000957e+01 1.997193123262758974e+01 1.973452939909632775e+01 2.032384656068944295e+01 2.542565702128088034e+01 2.970214667829901956e+01 2.969806034138165529e+01 2.469988864374086290e+01 2.226387237927840346e+01 1.919052880894160396e+01 2.123362095399664184e+01 2.626960616773756740e+01 3.162355046253860280e+01 3.423983690044867956e+01 3.308041366582803278e+01 3.366096058332431795e+01 3.707826235950125948e+01 3.515280069401778462e+01 3.996018820272775685e+01 4.448390316917177500e+01 4.736431568475646969e+01 4.303657869179063766e+01 3.842632062125364456e+01 3.843839843199948092e+01 3.997658302536342489e+01 4.066370987654673996e+01 3.753574110411106091e+01 4.088344334960552118e+01 4.129807689639233814e+01 3.675576386462813616e+01 3.099172549887192929e+01 2.875666387597510720e+01 2.794053690090953879e+01 2.527229126189657649e+01 2.146083778072421921e+01 1.921520725573641641e+01 1.710330712950701582e+01 1.813536098789759876e+01 1.990050182046418570e+01 2.314382960372039832e+01 2.643530139600852635e+01 3.154843286827453852e+01 3.804842680500421181e+01 4.404733019112319425e+01 4.112816378685448626e+01 3.789790655198090974e+01 4.245576895620539659e+01 4.373807265610950878e+01 3.791980956862411034e+01 3.247225884328138790e+01 2.807678426491894896e+01 2.476886673803855388e+01 2.255672763903171685e+01 2.722016094457548263e+01 3.294365461996084576e+01 3.318861960278444911e+01 2.941379319195324271e+01 2.628323720373608552e+01 3.123156558435066898e+01 3.505466754332938706e+01 3.296526236847567759e+01 3.602874344613600499e+01 3.440874642812747908e+01 3.182285500537118139e+01 3.441098892374086660e+01 3.579041975958977417e+01 3.398866602561899697e+01 3.643248825184188888e+01 3.783265820078040065e+01 3.615220848664218067e+01 3.855610525995606253e+01 3.777775106846470976e+01 4.191016151707728454e+01 4.647869333396598535e+01 4.894571755700528826e+01 4.469471122126114437e+01 4.224021333564789416e+01 3.989099388004103730e+01 4.229799209623475775e+01 4.327183043691608333e+01 4.774432202517662205e+01 5.145366316036391652e+01 5.265211811906056738e+01 5.686671978541743755e+01 6.409069348129547450e+01 7.073833368663855481e+01 4.614186559925494840e-02
8.029406028710217580e-02 4.130372813096044382e+01 3.868405362915729739e+01 3.625476216774948313e+01 3.128222460918242120e+01 2.658537198205676333e+01 2.738409967545868540e+01 2.216848498375045651e+01 1.740685278415456594e+01 1.351457946932882592e+01 9.757031246680780256e+00 7.493689927973855802e+00 1.110679220183853744e+01 1.391789566491417318e+01 1.807573491985943548e+01 2.182074031043902451e+01 2.417662656717834935e+01 2.614322395604426674e+01 3.126413084416758892e+01 3.345256719004598267e+01 3.010316256884166819e+01 2.651815781275967510e+01 2.231363576474168653e+01 2.441295313355410102e+01 2.322851631097574554e+01 2.764161759084222325e+01 3.331588168391652260e+01 3.838725029617907580e+01 3.958025823422553913e+01 4.218263137960377662e+01 4.126248575608344993e+01 4.508575779187077615e+01 4.719234386581876350e+01 4.569971228492606485e+01 4.417706381862063836e+01 3.759501484606651189e+01 3.325335642924650870e+01 3.644044938749118501e+01 3.620342196246376432e+01 3.226328567199762887e+01 3.703346120436002309e+01 4.135915159412270015e+01 3.916782236272807438e+01 3.416464975285043693e+01 3.002537829920935053e+01 2.639940806899284809e+01 2.194862038085309308e+01 1.759783796771424136e+01 1.722828262282502010e+01 2.050890286781185168e+01 2.235184544959627928e+01 2.421361350200418627e+01 2.830708889585486787e+01 3.180388243198900966e+01 3.613705482832634175e+01 4.111306143547312075e+01 4.440982339528116540e+01 3.888903286201006892e+01 3.404756161155481209e+01 3.843490607402900139e+01 4.377691364331786872e+01 4.184049458390694554e+01 3.778376838820788919e+01 3.357674882919062753e+01 2.824395079087621951e+01 2.384301747747345246e+01 2.708666042682281727e+01 3.178769223239024910e+01 3.528484731747644076e+01 3.160834756974031023e+01 2.679618578382062566e+01 2.964773885068080972e+01 3.093559566941361894e+01 2.895880014074877806e+01 3.165177035408450834e+01 3.071797009835961134e+01 3.351874616739650747e+01 3.704789007805543122e+01 4.042916625291560706e+01 3.761213092049292328e+01 3.371685951018737626e+01 3.370614650477964602e+01 3.817098347777477585e+01 4.257830334305845099e+01 4.137856109111957892e+01 3.910259569442818872e+01 4.221293211742236906e+01 4.445678674840013400e+01 4.652193401346623602e+01 4.668432411800350224e+01 4.359560690186558674e+01 4.068675320901461134e+01 4.402141908160071893e+01 4.502977571645374866e+01 4.743277268364201404e+01 5.136094809860557575e+01 5.513103555244911291e+01 6.134493609887356058e+01 6.793722324110211730e+01 4.351556056208284728e-02
4.037252567882113757e-02 3.515688747126858971e+01 3.335677279819248042e+01 3.582081343947326246e+01 3.568388715375611753e+01 3.327050703181063085e+01 3.235598152554831586e+01 2.746303618684137149e+01 2.229967276332756398e+01 1.777090705383434255e+01 1.376156389449163520e+01 1.022857817814021963e+01 8.069928384446040326e+00 9.491174767558471004e+00 1.279752903631283090e+01 1.873434390321259713e+01 2.546555121814157019e+01 2.980003466246301613e+01 3.313229716686075221e+01 3.802209144023976961e+01 3.379195536446012227e+01 2.823417204599289931e+01 2.717030906553357283e+01 2.818923251016538245e+01 2.439882289814214289e+01 2.881528781413271645e+01 3.476965405955483845e+01 3.856096024136957112e+01 4.166246991878026762e+01 4.534061936852120311e+01 4.738181009520322817e+01 4.951270048269052637e+01 4.516659037577261415e+01 4.072063428501364513e+01 3.926086956076481016e+01 3.483801088015447078e+01 3.055159944076893908e+01 3.207684134626948946e+01 3.106959697992810732e+01 2.782507932336273271e+01 3.156324748489971199e+01 3.435511793720390727e+01 3.434266741742895590e+01 3.015089029090391293e+01 2.505981172789286404e+01 2.204819012660290056e+01 1.851223735450585650e+01 1.967772919287200040e+01 2.119745787543192961e+01 2.439171874364862802e+01 2.911704926784828373e+01 3.071453642372870618e+01 3.305149173843583554e+01 3.451741863829238355e+01 3.837953962398406560e+01 4.296410655448038085e+01 4.103347652124843847e+01 3.481686668983405752e+01 3.101488862408132974e+01 3.629424772019305578e+01 4.248436723094610556e+01 4.473962460936769503e+01 4.120891074559212086e+01 3.687309950575305351e+01 3.061938113064930533e+01 2.679608087079290968e+01 2.353275167105266164e+01 2.741693218004913390e+01 3.366365193834167258e+01 3.442014821052001849e+01 3.031848677723650454e+01 2.701193375919780948e+01 2.677559928203595518e+01 3.015563399144273760e+01 2.986947584691849045e+01 3.306728704580762468e+01 3.473338679771134707e+01 3.976284966039673208e+01 4.602044207562085631e+01 4.269853150788670604e+01 3.737094590146158168e+01 3.490075437302118644e+01 3.945672153917834635e+01 4.567874459556291100e+01 4.588898463594136246e+01 4.199239178877378720e+01 3.906818317171000388e+01 3.970893008142557790e+01 4.386275119324777449e+01 4.748561033878182513e+01 4.635068040813765577e+01 4.220551127385790835e+01 4.554642872565653988e+01 4.869098894555276047e+01 5.108525330943817266e+01 5.114422098537495032e+01 5.544276533354929626e+01 6.204679667069790128e+01 6.771779513688275642e+01 3.536628060114886674e-02
8.575608572762147275e-02 3.213522392293809560e+01 2.808406253412197984e+01 3.171555182441303344e+01 3.671537923626313926e+01 3.736724313528976893e+01 3.363789091524171226e+01 2.812938454858868198e+01 2.150889932794503068e+01 1.593849468834949512e+01 1.061014269500163287e+01 7.286604824185641149e+00 1.078381672296288940e+01 1.327341377824092561e+01 1.280834331647073654e+01 1.754681991762325666e+01 2.404460066869388513e+01 2.880932300413861569e+01 3.322834195304682225e+01 3.812197231403963826e+01 3.734679140918241558e+01 3.316561968953094208e+01 3.390940199719842241e+01 3.200557377918761404e+01 2.660403918795898903e+01 2.748835114268512925e+01 3.175507836671792461e+01 3.391477589679059435e+01 3.769741192007050046e+01 4.299143341337169488e+01 4.934148366811645303e+01 5.327777774376072273e+01 4.856890284042786732e+01 4.112382925345261953e+01 3.526958367659537430e+01 3.180986209281538635e+01 3.184457708848697166e+01 2.827974834306584029e+01 2.643604046096375271e+01 2.503932747175554141e+01 2.741513337586684429e+01 2.729869313475438730e+01 2.823983582890036459e+01 2.393792750065554742e+01 2.203057750054315278e+01 1.933792344581485523e+01 2.018945314541701208e+01 1.755400061068691642e+01 2.152904528830770303e+01 2.787291989770362122e+01 3.274442654171293299e+01 3.106444858711363111e+01 2.855016045854193862e+01 2.890991332091508781e+01 3.317274881389578667e+01 3.819503517851519803e+01 3.558970617093695665e+01 3.012138081547363200e+01 2.870647145017692026e+01 3.343275498840887394e+01 4.007518337577307221e+01 4.243377990972122404e+01 3.753151921395524937e+01 3.500500248828885930e+01 3.104709611782156742e+01 2.669534085805266699e+01 2.342282929714900419e+01 2.737252533701952473e+01 3.420340483086667405e+01 3.718002426423312556e+01 3.295532807346867799e+01 3.073363533436136663e+01 2.827481990260490363e+01 3.172985119186434133e+01 3.372925724351481591e+01 3.717503910977939086e+01 3.931463873759328465e+01 4.149189055669108228e+01 4.708697622021303886e+01 4.746612456721183548e+01 4.236263743696394357e+01 3.851580630194230537e+01 4.262101416973603563e+01 4.875976657434407713e+01 4.941485615229831296e+01 4.471635106420146144e+01 4.305465337612100285e+01 4.195756966879751815e+01 4.147728445419933507e+01 4.644310628621870762e+01 4.900482726376662868e+01 4.572818508757534062e+01 4.446202166625769792e+01 4.822785679101168910e+01 5.420269272364913604e+01 5.535977473550706662e+01 5.477770857282416017e+01 5.889294437242221392e+01 6.515312664991473923e+01 6.257252417314770887e-02
3.010560449763687377e-02 2.892911688966022155e+01 2.441620541987300186e+01 2.834504275746762048e+01 3.085104168645097289e+01 3.290588835183612559e+01 2.862865893207884227e+01 2.355818531435624053e+01 2.053239549815554099e+01 1.832832027846997747e+01 1.212490049702230266e+01 6.930131149747257524e+00 1.125090808748939430e+01 1.720264995560315668e+01 1.723308390264859113e+01 1.645274498591757961e+01 2.049499245244640377e+01 2.396604438225791966e+01 2.966793415468614370e+01 3.659838157292723793e+01 4.053218209483824808e+01 3.850322689168690005e+01 3.970474409778110925e+01 3.502799628702153001e+01 3.086933374859057722e+01 3.181809865998793896e+01 3.110112327508847585e+01 3.469867872483735027e+01 4.067697478854763915e+01 4.589428974005983264e+01 5.175022438111017919e+01 5.601892405223644289e+01 4.974816502904855042e+01 4.247064227931779357e+01 3.794328385137683313e+01 3.422645003108668504e+01 3.580272768711312636e+01 3.269494789224712150e+01 3.105753136778276513e+01 2.771820634343672296e+01 2.397653102132106895e+01 2.255364166730497999e+01 2.360591850252038526e+01 2.008350318149447133e+01 1.949150215317737178e+01 2.252259611534316264e+01 2.242413917372473975e+01 1.833065207896658322e+01 2.169415405281473497e+01 2.646228084565266414e+01 2.885375716028776338e+01 2.701878082019729632e+01 2.240508987941446506e+01 2.413604475765021817e+01 2.760500101138372031e+01 3.231624029543700516e+01 3.071937701438145396e+01 2.633227409792404927e+01 3.015761504438526330e+01 3.636751018792708834e+01 4.176007357391988251e+01 4.265973469864855616e+01 3.614514648270988317e+01 3.056772277923661818e+01 2.731869004336501661e+01 2.323637667774938365e+01 2.683575175110410527e+01 3.168979226328700349e+01 3.697296413121352288e+01 4.094558706189838659e+01 3.863074275889200493e+01 3.483374964665308937e+01 3.256713152186981119e+01 3.093601750607313505e+01 3.400620689989156631e+01 3.767906467250048763e+01 4.168237444636680067e+01 4.543715033894500976e+01 4.972187489789098436e+01 4.938636966585772115e+01 4.439058480635398496e+01 4.347059751780896164e+01 4.302283202344921875e+01 4.866029946921318583e+01 5.267588453209948796e+01 4.957588356281318909e+01 4.548784146618331192e+01 4.109941492946945374e+01 4.424632492912918735e+01 4.890041061648213372e+01 5.018037976488038510e+01 4.651808820568768255e+01 4.740106555393423093e+01 4.963730447889675901e+01 5.600191803304630156e+01 6.095286697144150878e+01 5.922514375290595012e+01 6.083386688913685703e+01 6.624954169840734153e+01 6.863644506678154289e-02
1.140670907884745386e-02 2.711294808244759835e+01 2.208557645063119423e+01 2.303486297877210376e+01 2.426909921623906996e+01 2.848211300338498475e+01 2.620388422420152352e+01 2.009087405912545066e+01 1.607044053535017269e+01 1.514473623667448621e+01 1.180754055289320092e+01 6.974726740588120144e+00 1.188009964129770069e+01 1.859614829241890632e+01 2.204075074586606320e+01 2.068653949768325617e+01 1.977437561378924613e+01 2.422960174652615351e+01 3.161824955855918873e+01 3.733772094574071332e+01 3.794297798808303668e+01 3.581047594375485943e+01 3.821270116943417605e+01 3.916855558528905590e+01 3.646359356618977188e+01 3.812488386832566789e+01 3.589159239431321424e+01 3.423259214387045546e+01 3.779450794908999711e+01 4.361177671453935289e+01 4.996657271640292919e+01 5.114217072749993065e+01 4.836063336167278237e+01 4.262021294455644949e+01 3.860508175088796179e+01 3.965601313377168680e+01 4.059914853075250107e+01 3.912616643127879001e+01 3.509549352936635103e+01 2.960105540115212008e+01 2.727767528380485729e+01 2.440755019700758055e+01 2.199191121346400024e+01 2.332580568655721720e+01 2.357894200825234776e+01 2.740258527235154062e+01 2.621288317304885496e+01 2.181328119432082957e+01 1.924194948388787196e+01 2.184269409482524793e+01 2.225087812468688497e+01 2.229874503303251387e+01 1.952677029297031552e+01 2.191460360591189271e+01 2.260555107446452183e+01 2.721884428228259978e+01 2.638729687078866348e+01 2.440415183239808528e+01 2.860790183809439213e+01 3.470692132968477495e+01 4.076740292165128210e+01 4.036494391700102824e+01 3.378188414425525821e+01 2.938895645319632877e+01 2.439312978037160917e+01 2.183113748179908242e+01 2.731550312458240626e+01 3.209190644735232212e+01 3.602448789994149081e+01 4.206286868476385621e+01 4.363855076539046962e+01 4.099827285090127305e+01 3.667668069036658096e+01 3.416225179459015493e+01 3.143110982495562666e+01 3.379783955572492005e+01 3.871215246023660939e+01 4.344905982685277479e+01 4.985476493914615759e+01 5.221042919992753184e+01 4.951178420148934833e+01 5.006419294904826245e+01 4.671214759118362281e+01 5.022665348204732538e+01 5.460699538103170880e+01 5.076518430009227956e+01 4.582772203690561241e+01 4.199109248601801170e+01 4.562783469249362156e+01 5.149843320568584204e+01 5.270591085826124100e+01 5.078801308071795972e+01 4.890219082176870558e+01 5.219474920253703942e+01 5.711798615038780724e+01 6.354069881171653122e+01 6.512508208317647984e+01 6.672341490831712463e+01 7.019412473180435086e+01 2.416904750859025924e-02
4.940147565392236789e-02 2.940868096332121340e+01 2.376812862901040901e+01 1.917901310729621400e+01 2.032489444231095277e+01 2.439478905848956103e+01 2.531371375865149531e+01 2.109167509942834329e+01 1.605468488472148891e+01 1.133468825103707189e+01 1.018965231067020483e+01 7.068835068556862389e+00 1.022850961038584572e+01 1.621340952349318698e+01 2.244236139601285629e+01 2.507025372414175024e+01 2.329254494223649985e+01 2.392494567558072305e+01 2.884108470711311156e+01 3.369143308189682529e+01 3.266076895623263709e+01 2.936412420190832862e+01 3.384920678285671869e+01 3.871629020831105095e+01 4.123585474022547714e+01 4.413840111243641218e+01 4.179758015969738238e+01 3.869619509247622346e+01 4.164370406239461175e+01 4.767671971805308573e+01 5.218593476529037645e+01 5.004506941243606377e+01 4.507697733413253616e+01 4.171136964239448730e+01 4.336936016855676712e+01 4.579341485774408937e+01 4.645680011230575701e+01 4.321369408629215769e+01 3.677662243692495991e+01 3.193822931199705906e+01 2.723763266337781985e+01 2.373529460479560882e+01 2.561922491617910680e+01 2.628356485849096913e+01 2.956729200510681110e+01 3.229781666352627667e+01 2.849924874770306005e+01 2.332574133657573157e+01 2.144536081539490624e+01 1.762429927498157411e+01 1.764421085774905151e+01 1.848811153360894011e+01 2.165710173432840335e+01 1.947758994938286037e+01 1.934578865038130502e+01 2.275859568945039157e+01 2.256118187297101230e+01 2.663192621916447678e+01 3.166258575348496862e+01 3.586758238151816158e+01 4.014388582733812427e+01 3.946582115180547135e+01 3.237043890129842794e+01 2.671301021720883995e+01 2.472745225777549649e+01 2.226181960410346505e+01 2.617151525554440639e+01 2.857787056331949316e+01 3.391782050241281610e+01 4.007216456107417457e+01 4.410248920327044431e+01 4.567363360235542302e+01 4.264578944928010173e+01 3.731817751161798213e+01 3.306050307684507317e+01 3.656892876913317991e+01 3.699634259634328259e+01 4.150114859657617217e+01 4.777338421328629181e+01 5.311124514298107613e+01 5.450137534671242889e+01 5.524634223769444930e+01 5.253775986879583115e+01 5.434023883799722654e+01 5.244749638237455969e+01 4.774192667315397642e+01 4.385907500035686724e+01 4.620119299032435833e+01 5.014356573443384946e+01 5.496832083101681121e+01 5.823147545606229869e+01 5.562375412717813106e+01 5.370030844752562871e+01 5.212471328146292393e+01 5.598293272706432333e+01 6.105899222090933876e+01 6.468450794317060115e+01 6.847473165220722535e+01 7.268474168556373627e+01 5.364300592892588815e-02
3.101302940290096011e-02 3.020149713844224948e+01 2.567849662282423751e+01 1.976694337901256660e+01 1.570418852216987204e+01 2.004811510766754168e+01 2.078476964959851969e+01 1.622453774208194588e+01 1.469534235333237859e+01 1.071390583039745792e+01 8.098502324725515678e+00 1.095073787408543176e+01 1.437344622748246081e+01 1.998714727596631135e+01 2.374626459947344870e+01 2.300918801367243915e+01 2.267443233551101400e+01 2.563693276333936666e+01 3.032665115451755966e+01 2.893380387537320075e+01 2.601003881787823246e+01 2.442419746983835438e+01 2.933797714171905824e+01 3.540103804153902445e+01 3.776142912754909986e+01 4.114626610817108343e+01 4.244826161505640982e+01 4.360405357515981706e+01 4.694983545574119432e+01 5.130121716720045555e+01 5.479579644561071206e+01 5.143915505459371929e+01 4.946249029850255852e+01 4.619631500694051596e+01 4.846353518953814188e+01 4.727724207877905371e+01 4.383752343269492258e+01 3.974341382831494229e+01 3.483143596348354976e+01 2.947819305633489506e+01 2.546594457219802266e+01 2.734488556598120113e+01 3.107257438700395724e+01 3.187764487520488998e+01 3.417855989024712926e+01 3.543699481073656443e+01 3.034957583724215624e+01 2.747856410888443790e+01 2.375601833680477171e+01 1.865566066590020711e+01 2.148032966204401362e+01 2.196396066194878927e+01 2.637189219640749371e+01 2.495026502185920236e+01 2.294666791460598176e+01 2.055908613720167111e+01 2.311126119924277944e+01 2.737179916002974167e+01 2.960980735411600406e+01 3.177902529436186896e+01 3.748084996746706565e+01 4.031540319105535275e+01 3.310012524809793177e+01 2.611804006961006408e+01 2.200680348518736906e+01 2.487089369210866252e+01 2.539343044487679890e+01 2.897007693594193611e+01 3.177819388819067470e+01 3.595988167239083566e+01 4.104316289846121180e+01 4.697046786394260920e+01 4.724760633151833389e+01 4.078089502336795391e+01 3.606619737943083237e+01 3.918507962369757536e+01 4.021473088371043758e+01 3.972575626294295859e+01 4.330189325290665181e+01 4.880735508928980693e+01 5.225183892010158360e+01 5.753114761895129448e+01 5.776794196666139669e+01 5.535573685939936439e+01 4.951521117550559126e+01 4.489075732372185001e+01 4.575178238500608074e+01 4.828181248175334872e+01 5.026092663884196554e+01 5.346460240855075341e+01 5.916592808682051441e+01 6.090594336073053228e+01 5.959290869275341151e+01 5.665068459720139060e+01 5.438260578117475319e+01 5.586230936224548316e+01 5.978794667986162636e+01 6.498455448565361792e+01 7.085304035872407269e+01 2.257928919130492915e-02
1.303635835976315639e-02 2.462716072156536029e+01 2.212024605368489460e+01 1.798890714987546957e+01 1.303440950449996905e+01 1.732314917392888987e+01 1.706265022457231950e+01 1.199740520864093796e+01 1.074800460943047931e+01 7.987587471422131102e+00 9.981295219792556850e+00 1.317440208418506487e+01 1.897241480982709305e+01 2.284729071232769115e+01 2.036871163698603482e+01 1.641681947755114734e+01 1.634512709667360042e+01 2.120846426853376698e+01 2.430976297211241999e+01 2.235179158436093871e+01 2.079222800087566370e+01 2.422396712090261772e+01 3.092923533901286248e+01 3.385410840018169409e+01 3.161080586321061503e+01 3.520512795950951812e+01 3.638242625598763169e+01 4.026400778643910883e+01 4.291031601124038275e+01 4.690313776256139988e+01 5.139126712263445285e+01 5.489282472358282661e+01 5.439981229303977983e+01 5.106784205421723755e+01 4.894058906100163853e+01 4.354622242465774207e+01 3.713492351563103711e+01 3.292381067689934326e+01 3.043421459284959596e+01 2.684944557095085216e+01 2.821891284121144849e+01 3.039420265311224156e+01 3.601102383749433500e+01 3.908764569572169734e+01 4.043730472951027366e+01 3.889630537119376896e+01 3.315416999246039609e+01 2.860424272110952870e+01 2.429511818221809705e+01 2.055770719480419473e+01 2.418763157661149066e+01 2.690346824687740934e+01 3.168963511281941692e+01 3.103220352635504042e+01 2.586453911878122369e+01 2.306436944358791763e+01 2.090447294204307482e+01 2.370244694396244256e+01 2.497134724484843815e+01 2.952726110722738184e+01 3.494680926550321232e+01 3.585807362159638956e+01 3.068877999567353143e+01 2.627871534372793505e+01 2.157026162937290081e+01 2.586952385937445698e+01 2.885304682300884593e+01 3.024244486482064076e+01 3.482175766663471705e+01 3.973350298884020759e+01 4.234020417134069447e+01 4.780163708627079444e+01 4.796779235652684292e+01 4.266725622119454897e+01 4.038743407840662769e+01 3.961690800875577168e+01 4.288216700799230097e+01 4.348381429733889547e+01 4.204591970163652093e+01 4.469866299857184799e+01 5.005689164450118511e+01 5.646954745395903785e+01 5.835934489346967524e+01 5.335924271733399848e+01 4.790399658299947561e+01 4.706320660018643309e+01 4.373720591148920533e+01 4.466833653866395082e+01 4.642565167011309057e+01 5.081751469035006608e+01 5.612240437625816725e+01 5.952723016861353500e+01 6.233658228503113463e+01 6.207899735059069712e+01 5.952004429673408481e+01 5.782366996301941242e+01 6.204946377652837697e+01 6.802278000886639120e+01 7.318944105286998081e+01 8.833164974817581117e-02
2.550969840533044014e-02 2.201570029156297181e+01 1.691799741674239499e+01 1.468960850247963279e+01 1.082831655999412845e+01 1.529273900495578076e+01 1.483746479924986161e+01 1.069761592494818814e+01 8.015664610420520475e+00 1.012509545297312918e+01 8.680841148874597124e+00 1.161795978125972795e+01 1.450530438334492978e+01 1.739349381407620143e+01 1.536583650584515937e+01 1.194760892409995279e+01 1.236653706589351032e+01 1.635886033033884956e+01 1.808789460087267642e+01 1.732638079754778460e+01 2.115554669094805362e+01 2.614216666911383058e+01 3.197018315147305501e+01 3.064197009085967949e+01 2.627937157096609155e+01 2.910382379513767148e+01 3.003133163956661633e+01 3.390639909598159818e+01 3.563590779089113170e+01 3.966473685914803582e+01 4.548271924174268577e+01 5.047325366864085083e+01 5.248300300509383476e+01 4.873987216560523450e+01 4.434452981830052209e+01 3.819179563824155821e+01 3.243483183267721159e+01 2.911102368003107443e+01 2.767881774381507043e+01 2.913542416419360848e+01 3.092200233166541778e+01 3.556930739003178132e+01 4.077209969736665585e+01 4.409924383695796735e+01 4.113516755171064432e+01 3.693972148052568372e+01 3.051969581136325615e+01 2.464890886167110651e+01 2.172753225698035706e+01 2.405346672477474002e+01 2.534588183422382457e+01 3.011276782995820511e+01 3.656081988561338392e+01 3.533466033518873672e+01 2.957366034696190127e+01 2.480672836048989893e+01 2.364900793156782299e+01 2.104851116492697471e+01 2.319019037373120895e+01 2.491076082639084177e+01 2.971289769530359237e+01 3.151482039885458519e+01 2.680780013605086509e+01 2.474391408091575428e+01 2.173525328691916769e+01 2.529681209360981953e+01 3.084383163112552850e+01 3.472582182029122322e+01 3.704962190936714705e+01 4.260406445039075152e+01 4.658859856203927308e+01 5.055076996538096523e+01 5.125059743133213175e+01 4.822938416833954278e+01 4.462176442854013203e+01 4.355539215053318713e+01 4.416423001705803841e+01 4.817834294530416628e+01 4.688569733498485448e+01 4.787555288170533174e+01 4.877867253100964717e+01 5.356382686379918567e+01 5.889116626023815826e+01 5.662522732765975064e+01 5.107696959072263354e+01 5.035746345460816542e+01 4.597589497649244805e+01 4.909631248640086199e+01 4.979090747159295915e+01 4.832226790297451657e+01 5.164506880705303615e+01 5.440535516852999365e+01 5.983937017249407120e+01 6.444191369036794015e+01 6.523421555640388192e+01 6.334084330494084014e+01 6.277610072384306505e+01 6.705467635750433431e+01 7.332831807284387082e+01 9.939528658999399746e-02
5.398762161882948718e-02 2.075350345978362654e+01 1.421535750990915048e+01 9.491487402266423956e+00 8.803093727461108742e+00 1.298350169662102083e+01 1.094836430427492324e+01 7.954904586928625676e+00 1.053653613266902056e+01 1.409063852276941375e+01 1.231765567219018820e+01 8.953950321752270014e+00 9.494359609996690708e+00 1.251271411419173063e+01 1.179566786168877890e+01 1.490407804953540705e+01 1.584537259482076621e+01 1.317975316681259557e+01 1.388428725301790934e+01 1.701764924512637833e+01 2.097428190755100275e+01 2.697880438818925342e+01 2.856961016485728777e+01 2.579876181787931699e+01 2.284643454408519148e+01 2.448276029158196820e+01 2.638248401387017594e+01 2.915545389831736145e+01 3.179496708973909946e+01 3.561101729643924330e+01 4.095180145737847965e+01 4.729140032037389574e+01 4.957992693925040584e+01 4.452259469170020623e+01 3.943605110361833255e+01 3.538806536012452142e+01 3.261112110922817209e+01 3.306807185820846229e+01 3.122015094463819196e+01 3.014918320389655548e+01 3.382618857419576841e+01 3.835867049051862665e+01 4.428476402260292133e+01 4.355291675430534326e+01 3.769178716391444794e+01 3.252466264726913181e+01 2.824910637551650439e+01 2.617628314143043866e+01 2.329771123875030270e+01 2.718102292515869323e+01 2.975853714029334540e+01 3.154499498892558762e+01 3.648723701180051648e+01 3.663479513964017542e+01 3.153775060059210489e+01 2.948227650625402418e+01 2.723636935143641580e+01 2.315640713017563712e+01 2.043533294853688176e+01 2.100571997740056673e+01 2.522132503137087767e+01 2.819380767694536871e+01 2.493646614757924596e+01 2.172339620427360174e+01 2.528439749927301250e+01 2.954834903488612952e+01 3.292754029450018294e+01 3.870601273809679554e+01 4.168915461711876702e+01 4.442354344822907564e+01 4.520562454976032996e+01 4.867472287025900357e+01 5.244310807969619503e+01 5.373910350448523587e+01 5.100001076183665560e+01 5.069036972129635643e+01 4.900924862724451003e+01 5.305001063920492044e+01 5.378261067050203792e+01 5.492754212039361050e+01 5.332940677785770589e+01 5.673748518838603161e+01 6.231180764533458216e+01 6.113413231010737547e+01 5.604624731186873987e+01 5.344383147262237799e+01 4.885865718219308462e+01 5.314025530958998900e+01 5.359803095231869463e+01 5.137581083567538087e+01 4.892430533062137243e+01 5.210901814354277661e+01 5.580565526666652687e+01 6.176927862333454300e+01 6.644721697279074135e+01 6.863588532235057471e+01 6.760572317348250238e+01 6.881707257906876407e+01 7.411384642778752152e+01 1.781529151481987469e-02
7.526675340476227105e-02 1.843631426873294998e+01 1.254916674332097593e+01 6.956236510009973451e+00 9.013528242477642394e+00 1.053642753490072614e+01 7.009492084379401966e+00 9.776235208333044824e+00 1.146485771405236953e+01 1.595806295405166964e+01 1.690784188217201489e+01 1.342693154401105460e+01 1.241904407479344918e+01 1.018202283652082052e+01 1.427662705581093761e+01 1.907174268364375536e+01 2.073016675157298749e+01 1.733839330615275287e+01 1.750272012111605946e+01 1.541181196500536998e+01 1.897611309061164775e+01 2.342216815159956411e+01 2.325237785141039382e+01 2.178777567528322834e+01 2.522155677763736037e+01 2.924022235264154546e+01 3.172904859045341297e+01 3.436751714343819231e+01 3.711598437548718721e+01 4.077591942138744230e+01 4.527716856201678297e+01 4.981032780639312563e+01 5.186517127808367178e+01 4.863184885808261981e+01 4.363359963816747467e+01 4.038092273925236952e+01 3.734358837962331279e+01 3.555258244955262370e+01 3.254610883459410786e+01 3.434245813628983512e+01 3.537921444968115026e+01 4.135695942844013473e+01 4.752879601846058222e+01 4.588453009952340977e+01 4.090860918847948113e+01 3.536731682446176706e+01 2.967471931086398484e+01 2.604840773371793006e+01 2.695324077287754250e+01 2.874219140405308792e+01 3.336340748463990735e+01 3.653966623982699247e+01 3.870724677364492550e+01 3.950086017682626505e+01 3.590686759177567922e+01 3.200803249105567971e+01 2.582001381225414249e+01 2.136554053221053096e+01 2.389679702151288865e+01 2.436782846611851383e+01 2.206892043179822593e+01 2.394866007753152815e+01 2.128827510661228928e+01 2.109538251872301373e+01 2.558213400902237211e+01 3.065068050407227673e+01 3.597895346359629087e+01 4.116806969802721738e+01 4.174141207678945875e+01 3.998913753953860351e+01 3.939697585654081280e+01 4.345825535118440541e+01 4.958878037688268137e+01 5.535035765814209441e+01 5.662479449821894661e+01 5.649581213691388371e+01 5.421147255403491982e+01 5.620445517618173881e+01 5.627234306399417818e+01 5.886207325452711814e+01 5.899687440660827065e+01 6.217870961857385481e+01 6.564774946574863179e+01 6.558657504172194308e+01 6.219054959932957871e+01 5.641168245516738722e+01 5.198125171805060774e+01 5.708024877580687928e+01 5.972095008680719275e+01 5.500787202946439436e+01 5.080201912634069572e+01 4.998464257361320762e+01 5.338883906836939985e+01 5.715034130825384295e+01 6.294901998296472101e+01 6.627783069127161752e+01 6.953355615658580291e+01 7.280226314892826167e+01 7.665997864717900256e+01 6.292257916212533331e-02
4.169806299365781677e-02 1.257954777846091154e+01 9.652624204815783315e+00 5.569877850537112707e+00 6.090539360860395490e+00 8.673052898710681191e+00 6.627478526878188170e+00 1.093085899955838691e+01 1.521576929550667145e+01 1.789863267190889573e+01 2.211504665616783427e+01 1.996432235181669057e+01 1.534432513121011965e+01 1.157898104139145090e+01 1.562775956251036646e+01 2.131022409112590310e+01 2.521955981497983146e+01 2.411591622048090500e+01 2.307257214522753941e+01 1.852353378871898926e+01 1.626325381199774256e+01 1.907875567742022938e+01 1.912230771352330549e+01 2.320004241131861988e+01 2.732168490557099005e+01 3.249425534553013506e+01 3.416703300651053610e+01 3.734499380661981149e+01 3.939873852837006751e+01 4.333606190139860814e+01 4.823964916775379663e+01 5.084230280345624919e+01 5.136042298019881258e+01 5.242970040540470933e+01 4.926244087038717367e+01 4.302277127249119104e+01 3.759501358104601110e+01 3.467739345819429531e+01 3.643365370881441123e+01 3.985028071615005985e+01 4.012375301514690307e+01 4.491095130569812000e+01 4.762997971339335379e+01 4.430362992663865640e+01 3.929606333384511885e+01 3.332398990386111848e+01 2.898450767825000440e+01 2.988863679958874542e+01 2.937770272733530419e+01 3.344849681649674977e+01 3.616303325378594025e+01 4.072126257384709191e+01 4.302055451952907106e+01 3.955763548680179298e+01 3.525268437944011879e+01 3.135175654633941988e+01 2.603329179693962914e+01 2.245739278178221454e+01 2.681044645214683086e+01 2.851138516282164304e+01 2.495763536281942052e+01 2.218760115702863089e+01 2.410139429012481216e+01 2.482701627973773739e+01 2.265939663034969698e+01 2.684109553870481335e+01 3.330202957188393498e+01 3.784901071475955803e+01 3.639012138712979549e+01 3.511128623316530195e+01 3.800845727298886345e+01 4.345492488422964072e+01 4.977602293603651162e+01 5.392104394775466858e+01 5.464879425808324953e+01 5.378436247886142496e+01 5.081308607770906605e+01 5.049465785550285091e+01 5.139215503415503861e+01 5.554487300899297963e+01 5.684229806201238944e+01 5.998000346047935949e+01 6.188234013136867162e+01 6.498591147909790777e+01 6.610208159659629246e+01 6.086391018529785413e+01 5.588167127840642223e+01 6.100034248914609236e+01 6.491627525568495116e+01 6.011851909914624059e+01 5.546369495176583087e+01 5.372677024647340716e+01 5.149497461206327387e+01 5.464090872881072158e+01 5.807406205829055068e+01 5.997163827065870123e+01 6.509895923050768829e+01 6.969070685620580718e+01 7.400610104126469935e+01 6.740637757667146401e-02
6.114909404499987294e-02 1.024911730643869490e+01 6.210652190226477742e+00 8.970022588441842970e+00 9.761031614244217280e+00 7.277739035863542760e+00 9.584769231560581915e+00 1.120596400020569128e+01 1.626485314533143267e+01 2.200699220992495952e+01 2.647017468108215610e+01 2.573342172267625472e+01 2.027216047878546590e+01 1.578976576704515011e+01 1.454699242890257693e+01 1.901130765199261674e+01 2.455455747167879821e+01 2.914730936154744256e+01 2.878095723531647820e+01 2.458641419994646071e+01 1.948497575502219448e+01 1.705940500247044511e+01 2.000522521095471973e+01 2.498323059281696246e+01 2.858918877363671029e+01 2.798762204167586276e+01 2.844346100577834591e+01 3.193699645209571258e+01 3.373494215806500307e+01 3.835157194603488051e+01 4.443245180020046803e+01 4.444752972017815296e+01 4.477240029109652397e+01 4.896481481038512129e+01 5.167227947941861288e+01 4.683536346611894174e+01 4.051031797107359722e+01 3.704044308529378782e+01 3.766511616958451469e+01 4.294296852514583662e+01 4.617283982590873848e+01 4.864291215362466403e+01 4.572675923176659296e+01 3.946887083111285222e+01 3.537272505755350238e+01 3.130718514101337746e+01 3.334776195589054026e+01 3.570191486456611329e+01 3.366475741776012853e+01 3.856561153434979872e+01 4.107124992825693255e+01 4.089199483087593734e+01 3.813305206196491071e+01 3.534496171546456367e+01 3.012112614782609654e+01 2.740515945058164249e+01 2.406102923223380685e+01 2.597659189446915917e+01 3.025653780879365229e+01 3.175479449632938866e+01 2.745604233125732208e+01 2.585981580091496568e+01 2.534696523118969935e+01 2.689006082109816020e+01 2.338167106348794277e+01 2.645115279668686981e+01 3.002950280903070990e+01 3.219596438152090911e+01 3.197975591536213713e+01 3.644678220496960819e+01 4.191515430385315000e+01 4.556767517327616446e+01 4.616879216960386856e+01 4.768786408674250765e+01 4.756557797992103787e+01 4.750205543777504147e+01 4.386114172931227984e+01 4.473343421751508231e+01 4.866616460042152426e+01 4.974605425695834526e+01 5.005005018997773192e+01 5.355527157752918299e+01 5.551877556889373011e+01 6.148663333225237437e+01 6.666360204390878152e+01 6.464007700631647424e+01 6.079064944768316536e+01 6.528391724418017361e+01 6.967231555720678671e+01 6.559966108990440148e+01 6.162441759132442343e+01 5.825730639867665417e+01 5.408770296828354418e+01 5.188442294886732498e+01 5.324597429826859241e+01 5.528424234735420839e+01 5.975878210488620823e+01 6.513304216770367816e+01 7.101165929006319288e+01 3.508685596106835003e-02
7.945914529001278648e-02 9.743649982411643151e+00 5.391674028663180351e+00 1.006929858409141332e+01 1.345716489069658017e+01 1.118392031698021682e+01 1.261741244587735622e+01 1.562078539022323298e+01 1.691071592657598543e+01 2.164636761610988813e+01 2.756471031524025506e+01 2.829912998128999391e+01 2.253117679026296827e+01 1.804953643978748801e+01 1.778475880469910564e+01 1.696657383844925349e+01 2.045155293658238094e+01 2.626753080401675433e+01 2.974957609366799005e+01 2.988583716111208588e+01 2.549127871996489958e+01 2.027583053477241393e+01 1.821247104567623509e+01 2.163716732672824605e+01 2.351544580495151493e+01 2.249038476450499502e+01 2.410723491444777977e+01 2.709336600642738091e+01 3.032790083363370570e+01 3.522694389669189263e+01 4.031299000550956180e+01 3.824555463782959208e+01 3.839407492008871259e+01 4.389079830137468008e+01 4.851245375042234542e+01 4.978350512026161567e+01 4.643540998787749174e+01 4.211741206090412959e+01 4.072367304878221717e+01 4.463860705332326972e+01 4.985365478013726914e+01 5.009135258151403036e+01 4.502325608603895546e+01 3.825624073157279526e+01 3.339904394031395896e+01 3.434163568039878101e+01 3.926663323658756610e+01 4.180790230034173760e+01 3.918336452381365120e+01 4.256351201399589712e+01 4.288334112792055208e+01 3.775720529060978237e+01 3.239235001261216240e+01 3.048715563457103173e+01 2.780971490291957338e+01 2.500401232182817779e+01 2.695155472892134796e+01 2.727482830474217224e+01 3.162460240564507075e+01 3.535840702577951333e+01 3.352963709967493600e+01 3.075264562342494301e+01 3.015014094353937324e+01 3.079772594110981387e+01 2.702781574249050678e+01 2.341410499167098891e+01 2.518727355204102025e+01 2.817935004625111972e+01 3.309024228744671348e+01 3.814906517292237709e+01 4.119872637031995311e+01 4.005013257578622898e+01 4.009634230647492359e+01 4.375590661822989347e+01 4.179312734881302305e+01 4.095111487084766111e+01 3.984554705308113398e+01 4.400862378610200665e+01 4.576739028556115585e+01 4.461221789861505727e+01 4.547862024876114617e+01 4.779453406706748098e+01 5.200873074776006888e+01 5.808762491240049997e+01 6.475876566712939564e+01 6.774915290679508928e+01 6.698003783256949362e+01 6.921274453312803132e+01 6.911029074901271940e+01 6.556008829641727687e+01 6.235641609649461259e+01 5.762547409909780072e+01 5.371279034353988635e+01 5.509419476997149445e+01 5.715888856855728051e+01 5.736458569144028274e+01 6.223322299855575324e+01 6.818464159603360031e+01 7.334217151482999952e+01 7.688513790299773831e-02
2.008881466209391092e-02 9.681599977476338381e+00 5.158753865459740240e+00 9.519094218889090797e+00 1.549974737714587469e+01 1.658586341138678222e+01 1.847700776672700584e+01 2.183069509722125190e+01 2.314341705191525733e+01 2.682443445855211905e+01 3.075682569667095834e+01 3.132686651340143058e+01 2.765026520068357030e+01 2.359419703668723756e+01 2.270337542687817844e+01 2.084963103564733089e+01 1.884714851253032464e+01 2.209818461174613446e+01 2.685706949136910637e+01 3.213735276023156473e+01 3.057163004243205862e+01 2.518640437157479539e+01 2.088961778699199456e+01 1.857418825793626382e+01 1.967675469495299723e+01 2.318212587847594719e+01 2.773752329303331265e+01 3.093617474348445384e+01 3.406533279535347702e+01 3.736184930172552754e+01 3.775704604987356561e+01 3.350375956129248323e+01 3.401597277930242313e+01 3.864978719797553453e+01 4.455101979828731373e+01 5.029828015532859808e+01 5.057925265238181822e+01 4.884687472449780898e+01 4.598990019824208275e+01 4.996183479785387505e+01 5.271014403448909036e+01 4.813277212349886724e+01 4.129762179226685959e+01 3.673211590909902924e+01 3.607325961057109964e+01 4.085365437696334112e+01 4.520664171397723408e+01 4.708229959445349522e+01 4.511037408945588112e+01 4.473932811232807438e+01 3.907051047004657818e+01 3.358372417913069796e+01 2.967333595567470894e+01 2.617715105866241743e+01 2.536752249335329523e+01 2.779127579752194421e+01 3.153855216028193453e+01 3.214254840272059255e+01 3.223636241403640668e+01 3.758905439442244756e+01 4.026521001335498795e+01 3.689652766416583063e+01 3.599877144893905978e+01 3.304243003494661224e+01 2.829429606075287751e+01 2.459154365579222556e+01 2.853709897420353769e+01 3.216357725093627096e+01 3.493954380780367330e+01 3.484924247328151381e+01 3.503525414343880584e+01 3.357362485564631527e+01 3.629604503149575123e+01 3.981886017468542605e+01 3.842693274388349067e+01 3.679415185694269042e+01 3.965495511117880056e+01 4.378805147605673653e+01 4.216948384294511243e+01 4.612471799153156837e+01 4.917089623704082157e+01 4.864847928661745868e+01 5.289208575390390621e+01 5.813336658664919554e+01 6.283091036382950278e+01 6.703209887468116790e+01 7.055334922750211035e+01 7.108965838579389640e+01 6.596878018193305593e+01 6.093808801710125778e+01 5.873173950059019433e+01 5.559886302391051061e+01 5.695171745280926956e+01 5.613699363881280391e+01 5.939091742279019570e+01 6.161449594642464689e+01 6.299405384840448363e+01 6.787897941610528108e+01 7.426915650689397808e+01 5.004359136163377686e-02
9.301066242636588099e-02 1.046349503447890683e+01 6.088329313900940676e+00 9.278928559554415756e+00 1.352010400663399636e+01 1.463364317009837734e+01 1.803473444876120269e+01 2.321894137366769684e+01 2.791071357603123460e+01 3.174628231679114521e+01 3.130298705355121314e+01 2.930432298535848190e+01 3.050440190681300479e+01 3.020501387039745822e+01 2.973127039552409911e+01 2.575808606394602762e+01 2.233655805748607293e+01 2.572575648387405067e+01 2.795955640031814937e+01 3.259599251079997373e+01 3.111891808497060907e+01 2.454748551485356955e+01 2.052772852183132812e+01 2.152966641217609123e+01 2.282185387984073088e+01 2.197626572468298889e+01 2.561948837837228155e+01 2.849458495188452645e+01 3.038310369400106481e+01 3.202046277763752613e+01 3.257787528047556691e+01 3.087082999388568538e+01 3.432859907517860165e+01 3.886300736811423917e+01 4.381406211272496876e+01 4.979542248959833017e+01 5.562827216786985218e+01 5.431337442181182951e+01 5.175891102634219720e+01 5.346368290384606325e+01 5.339088826183906633e+01 4.742205566356237512e+01 4.218925620335188142e+01 4.087936801361981765e+01 4.160497371284945700e+01 4.648647827523464571e+01 4.961517973293829442e+01 4.766112266437226452e+01 4.629537585068455741e+01 4.424330017028216133e+01 3.710201795021568927e+01 3.041475808891765098e+01 2.682726149615528044e+01 2.940613091098575893e+01 2.983131934470962676e+01 2.883495848729285527e+01 3.311132980565590600e+01 3.780616592975838586e+01 3.635477774030992748e+01 4.114865363612255322e+01 4.572191113837080678e+01 4.004884803212571853e+01 3.575050752203129889e+01 3.069177041938584694e+01 2.630559006673527023e+01 2.736749365576782367e+01 3.031400458873789105e+01 3.352630122883964248e+01 3.255834926675450447e+01 2.984496487230675399e+01 3.000484077025947727e+01 3.019416891149050741e+01 3.180986003027531694e+01 3.533007708677337178e+01 3.483583722445008135e+01 3.806216327203948424e+01 3.800814091669915484e+01 4.097036943963730238e+01 4.073996935660635188e+01 4.582349699455068759e+01 5.134686290838551770e+01 5.233240422237678047e+01 5.169086020895677080e+01 5.362369981874134339e+01 5.781207873653880114e+01 6.317793085326715641e+01 6.968042707730901952e+01 7.324309359017287591e+01 6.819610265654593206e+01 6.098665005914809711e+01 5.641914860721930580e+01 5.897399537192233510e+01 6.220660608325163565e+01 6.104924442925457839e+01 5.966607814889452754e+01 6.307798398536806417e+01 6.681014915641047480e+01 6.998053371760198615e+01 7.586834863352042646e+01 6.815538433958176490e-02
8.515008955356237474e-02 1.406648895491709439e+01 9.685018241143300344e+00 6.640021406028025375e+00 8.963139462403777458e+00 9.337574692634431628e+00 1.308841877368198325e+01 1.939269074704262863e+01 2.371349781233416110e+01 2.832605123843690009e+01 2.662444360438956181e+01 2.323964350223982933e+01 2.740973099762340937e+01 3.191067407189475702e+01 3.481226213121792767e+01 3.146903271013848169e+01 2.797155270337473709e+01 2.940638657243252041e+01 3.309253616977263590e+01 3.475748425774587957e+01 3.232274452582037583e+01 2.657839707530700935e+01 2.455920783901652982e+01 2.194790341782372423e+01 2.452752356552227297e+01 2.479881281849490904e+01 2.317301988246633471e+01 2.390228920407096069e+01 2.494369478982257249e+01 2.665837668648962477e+01 2.840964941380221376e+01 3.226717192503840437e+01 3.273360533820060425e+01 3.519175269404828299e+01 3.914110621614924668e+01 4.559027814269381906e+01 5.057790738346345449e+01 5.426213522623673668e+01 5.726636307090446110e+01 5.941667144384263111e+01 5.698916887742768012e+01 5.218412604974029279e+01 4.793454843210909644e+01 4.748547756620209270e+01 4.812523592420889429e+01 5.027661586943136740e+01 4.845059493359621428e+01 4.277493293896591808e+01 4.044070551788944101e+01 4.022563000831830493e+01 3.470378299673310352e+01 3.099652586282358868e+01 2.797677746253398468e+01 3.262047502619962813e+01 3.562089724860256723e+01 3.313733927374575217e+01 3.343280370206743157e+01 3.792000721730022406e+01 4.122089683228746537e+01 4.380016156121491377e+01 4.434605798472517080e+01 3.790385974003396541e+01 3.216508778938912627e+01 2.892001406445185197e+01 2.838084693113678370e+01 2.519883781160947223e+01 2.652888059842696578e+01 2.997610845129392487e+01 2.922524526099572739e+01 3.186825362186083410e+01 3.496787450944324149e+01 3.548124469125442459e+01 3.469074684115817320e+01 3.353919793986277398e+01 3.683532547115895284e+01 4.212805826812314081e+01 4.203461956406973599e+01 4.011699360631320843e+01 4.238951401442719913e+01 4.459914539600757877e+01 4.874159121236857573e+01 5.354720576430340628e+01 5.583384354741405531e+01 5.570823175868142840e+01 6.026387107768002238e+01 6.619479951669312356e+01 7.159215855504339743e+01 7.246334031222494332e+01 6.600390117754601249e+01 5.982759747091738234e+01 5.705958679366872133e+01 6.089987582107347208e+01 6.568512783942796318e+01 6.670273886949732400e+01 6.450634494123471541e+01 6.316014497996880550e+01 6.732701675122372365e+01 7.335092682769767691e+01 7.879660420205134130e+01 7.375883572339550498e-02
9.114153266738220238e-02 1.751098297869414111e+01 1.206967555964971339e+01 8.650022329069052773e+00 5.465060676332370804e+00 9.213106144146543386e+00 1.158752732846532041e+01 1.567204717032610084e+01 2.104965794880400409e+01 2.232008689566515613e+01 1.989159480594321394e+01 1.848372900692105247e+01 2.286762478738855009e+01 2.841135119851164603e+01 3.118152846956719770e+01 3.358526453574921788e+01 3.366095674389976722e+01 3.499950228385737461e+01 3.842501119450363234e+01 4.030636424273843232e+01 3.617357027279365411e+01 3.281236569971012784e+01 3.055672075411314736e+01 2.586433931576726053e+01 2.389381390434916597e+01 2.643763978172020757e+01 2.750427378490130792e+01 2.885339376600492400e+01 2.907093286569667256e+01 3.154742784498642649e+01 3.254215918911325645e+01 3.678549202453960731e+01 3.756011005189530039e+01 3.956366711946017034e+01 3.871626134233897432e+01 4.122647752222916040e+01 4.546004551185176012e+01 5.102939938849833368e+01 5.726514897154827111e+01 6.014743868174230101e+01 5.724936731449788141e+01 5.421281447505942452e+01 4.855844287589456343e+01 4.701667166063195680e+01 4.879161680566111414e+01 4.887468293602161395e+01 4.786278064631613915e+01 4.122986582923789456e+01 3.613787492617400687e+01 3.555566258887205322e+01 3.278902042602589262e+01 2.960673094830302432e+01 3.119622356881406233e+01 3.531409790881622968e+01 3.946204234706882374e+01 3.967438316304207291e+01 3.873427632559646128e+01 3.863554815346095239e+01 4.395745703084567424e+01 4.848517942366172662e+01 4.304257876549505113e+01 3.732560427159091887e+01 3.583996604167106881e+01 3.322225901936371883e+01 3.076362356568490952e+01 2.704457297041170705e+01 2.892424300626160516e+01 2.829843200383686508e+01 3.138312994590036098e+01 3.632466001218775631e+01 4.130921657981404138e+01 3.924381283122281161e+01 3.532811695357376180e+01 3.676151817029955282e+01 4.113733539767162739e+01 4.634242283826051789e+01 4.731190430220755871e+01 4.502466757113161577e+01 4.381306113047254058e+01 4.793997167938579906e+01 5.278309794798357757e+01 5.536496008745492503e+01 6.016849657214447689e+01 6.110052549436153413e+01 6.120516771849406723e+01 6.574410666498499722e+01 7.245898259486003212e+01 7.428085244682914379e+01 6.757610500838455891e+01 6.192066650029104125e+01 6.083228691067600380e+01 5.913593577634887311e+01 6.384092988793389623e+01 6.953997948585325162e+01 7.035879715221145148e+01 6.803863995519482444e+01 6.702188275928114081e+01 7.179748927307902306e+01 7.799755951371349738e+01 8.226315624173137497e-02
6.419143445315529661e-02 2.125859639143305913e+01 1.603683264357465887e+01 9.125292339856187596e+00 4.586585406653478358e+00 9.164102849668118722e+00 1.100914680102368060e+01 1.268935389760256527e+01 1.449274536250825918e+01 1.523822198357409086e+01 1.453881138112841676e+01 1.834513530513788027e+01 2.300075435365189591e+01 2.404828656800908959e+01 2.573762934288138382e+01 3.062909413776253587e+01 3.181829690549541922e+01 3.306776822683705319e+01 3.671283910647954229e+01 3.873650546157514896e+01 3.681041748326320828e+01 3.811059743090545737e+01 3.693555834735674637e+01 3.242139991496953400e+01 2.798500812682619454e+01 2.586174075928970950e+01 2.907651528654161055e+01 3.346533851577019902e+01 3.518600683326530998e+01 3.798395856898639522e+01 3.934391966671540786e+01 4.208705176749796095e+01 4.406332579256122983e+01 4.600363928639870181e+01 4.474838860259998796e+01 4.518513928491427123e+01 4.926318645294173848e+01 5.510908594151855766e+01 5.927234336782884583e+01 5.799495301184741436e+01 5.262711609517046440e+01 5.029140616689605991e+01 4.624470602402944053e+01 4.259678815839376398e+01 4.342293664369598361e+01 4.256483165966851345e+01 4.388688102562446858e+01 3.865335470433953446e+01 3.498878083080878554e+01 3.161012707006473477e+01 3.041412149393285347e+01 3.222753617216691424e+01 3.031905955956552745e+01 3.267270405390030419e+01 3.760794323356793711e+01 4.239397074825693323e+01 4.490388584274676020e+01 4.334168724008983276e+01 4.768216806049103695e+01 4.932076334028391784e+01 4.353820428175680490e+01 4.044441251032662876e+01 3.835186995629968720e+01 3.404916180218100408e+01 3.060723210298936436e+01 3.125764962919547330e+01 2.969667160243086457e+01 3.154287985682591255e+01 3.103686535377783429e+01 3.542570045378945309e+01 4.091716713225851976e+01 4.232545758270899938e+01 3.957355143518824292e+01 3.704897511465271975e+01 4.054646165801332103e+01 4.484676938817441538e+01 5.029185931047792479e+01 5.103096181453100399e+01 4.850128677003084476e+01 5.012316692777054072e+01 5.572665736392202263e+01 5.961189586506595361e+01 6.394318872247058039e+01 6.725766950572122482e+01 6.620656462945531473e+01 6.792217194192413388e+01 7.372863249758037796e+01 7.446341643784710129e+01 6.903197695096756092e+01 6.650948794941568565e+01 6.390940409647164699e+01 6.066432087522991878e+01 6.473132455865149382e+01 7.064787493169936283e+01 7.489118724233105695e+01 7.413727224283059059e+01 7.189090685122660318e+01 7.110646715628172387e+01 7.615057107535037062e+01 5.655108950631936027e-02
2.757085678021827663e-02 2.229332947219766226e+01 1.694242382594049090e+01 9.623891490082414180e+00 4.131674148186194273e+00 7.638714089958655862e+00 7.115588899568775716e+00 7.875636741408441388e+00 8.834958495895515185e+00 1.043083994674188020e+01 1.357284272486849908e+01 1.639790472515000630e+01 1.714181603651320529e+01 1.803216121740077682e+01 2.326807450553788215e+01 2.748473451051946270e+01 2.558889986175801567e+01 2.717076209148694943e+01 3.210847154472529752e+01 3.298301616149501569e+01 3.247225296496222313e+01 3.677652570734162651e+01 4.134157074126433429e+01 3.691566190774072709e+01 3.131385652345022663e+01 2.921692681707988015e+01 2.782560680529803676e+01 3.132945992490408926e+01 3.437764403157277115e+01 3.727008057065885538e+01 4.211933693761911002e+01 4.230884246612659183e+01 4.450628510115590331e+01 4.761567897030619179e+01 5.038640354171046454e+01 5.184157131426685083e+01 5.604262161951734811e+01 6.006707407637725282e+01 6.033477582032623587e+01 5.667953665723733536e+01 5.087832038413898061e+01 4.637460231581531644e+01 4.378867176742117096e+01 4.307986970410495076e+01 3.887878150385593301e+01 3.778179685993898573e+01 3.937965603056794350e+01 3.672856350904572764e+01 3.356115566021989594e+01 3.546334415883936231e+01 3.508254724857145845e+01 3.683769613664444620e+01 3.371410325709334188e+01 3.596755835191205364e+01 3.531332870102991706e+01 4.029167166349862583e+01 4.653176488538895939e+01 4.909937087833752400e+01 5.248207654300056646e+01 5.200767986874929250e+01 4.484313763162768396e+01 3.896713002731254250e+01 3.494189696002084133e+01 3.216675449645307339e+01 3.466439608486550839e+01 3.638941605052682604e+01 3.268698450792229693e+01 3.647073143547672913e+01 3.512953734473158107e+01 3.410890573188267894e+01 3.835459034973798964e+01 4.314829722891813191e+01 4.398062135250781779e+01 4.101689103895817112e+01 3.913806640688412131e+01 4.285300844762694084e+01 4.838044522706744743e+01 5.311174378642613192e+01 5.390590767853615972e+01 5.474466638362542881e+01 5.759703927045273986e+01 5.791770901561252316e+01 6.156880363419670488e+01 6.645202911574889981e+01 6.777441701427746068e+01 7.134861497992875456e+01 7.654688715913162866e+01 7.765886767478234276e+01 7.335467776442074239e+01 6.862369209019426819e+01 6.464722757037706913e+01 6.467740920614083677e+01 6.360203182018351953e+01 6.751804597041611089e+01 7.131303982184522283e+01 7.675951374336079880e+01 7.797189023779439765e+01 7.537400830661921702e+01 7.933378412454104023e+01 4.772442871898349009e-02
3.492601649892575905e-02 1.900362263993644518e+01 1.340004497332806110e+01 7.429429170093372115e+00 3.076699897271667261e+00 5.408584527511022699e+00 1.013726239086408043e+01 1.275439088176768543e+01 1.320608778498475111e+01 1.392047289102411334e+01 1.121942490691314376e+01 1.214859136456448319e+01 1.319083181427493123e+01 1.507660133199767927e+01 1.969154536267586408e+01 2.235456163231522453e+01 2.138875473303569308e+01 2.493365283021246626e+01 2.840126571166575786e+01 2.869639951614014350e+01 3.272282878300578801e+01 3.549998573536721125e+01 4.017513565723219671e+01 4.070603356011142182e+01 3.734260539886328445e+01 3.334263778071686346e+01 3.126532885926803829e+01 2.859152045524447416e+01 3.055187970456102420e+01 3.475627633129993654e+01 3.799704213664475105e+01 3.741290387234651149e+01 3.928156799651491582e+01 4.322460065623653946e+01 4.799279198452028794e+01 5.352181555907702659e+01 6.009041225219322513e+01 6.241761738985827890e+01 5.728101500282258485e+01 5.195815755614594167e+01 4.916104649674490190e+01 5.029507685803553585e+01 4.817912485519304511e+01 4.627170414833739187e+01 4.069284040832881999e+01 3.977310854467322798e+01 3.594402388650394897e+01 3.397592086122487842e+01 3.650653141381209110e+01 4.119377810938445350e+01 4.187509856086142435e+01 3.994225934120841259e+01 3.881954662804072598e+01 3.978953085739816231e+01 3.721402408108661319e+01 4.136505657996502805e+01 4.712217287382009090e+01 5.140574622999974963e+01 5.522523523583135585e+01 5.238823871467630511e+01 4.608870406171317313e+01 4.296277440487776289e+01 3.833862897716448970e+01 3.438804733809988079e+01 3.889565429795384688e+01 4.005283465102283458e+01 3.590782517159433240e+01 4.015279114916479841e+01 3.969925854989007519e+01 3.794951334769415041e+01 3.626583153313870866e+01 4.040197062946383255e+01 4.580350575267866020e+01 4.479806503430108222e+01 4.285563993302098851e+01 4.047621861461082204e+01 4.348094599949284600e+01 4.809826042175733107e+01 5.154516687597946856e+01 5.235654126317932366e+01 5.346136825948591564e+01 5.276156578436646782e+01 5.624368827796894266e+01 6.124929496400257989e+01 6.318707775554958062e+01 6.861151360741965277e+01 7.540804413740055168e+01 7.940444451673847936e+01 7.366030278159509237e+01 6.921481191697641577e+01 6.978098353686009148e+01 7.038192382357348720e+01 6.706768688949466650e+01 6.530988220005583855e+01 7.003487616622498990e+01 7.732694336836178195e+01 8.208919189887784285e+01 8.174253338080754361e+01 8.454085982666073562e+01 9.624496175014388144e-02
2.578368951673353296e-02 1.548333104279606331e+01 1.373060561763612064e+01 8.921417959224925198e+00 4.049294466810735571e+00 8.184101319016113152e+00 1.337699762784595237e+01 1.812884888474003731e+01 1.978624576476147823e+01 1.896572942639569348e+01 1.441074835739008719e+01 1.665807737812065170e+01 1.794802730562019377e+01 1.921672144458875664e+01 1.717655015084605807e+01 1.845922096058052375e+01 2.217114300667810767e+01 2.290643725910057782e+01 2.493274016881067112e+01 2.944662571431476294e+01 3.529234360626834643e+01 3.891578761747035031e+01 4.074415052192330933e+01 4.436014115754610998e+01 4.385004095005517399e+01 3.989638486783545090e+01 3.580377413523305563e+01 3.138321965632769306e+01 3.390902142553341747e+01 3.273149746362119572e+01 3.442621227187316890e+01 3.821827710672098988e+01 4.047774353970552141e+01 4.560399393966157788e+01 5.130924454773995791e+01 5.681200807209222603e+01 6.276139308273290851e+01 6.520527822707290966e+01 5.879294044192693747e+01 5.311766944038248539e+01 5.315312278333865237e+01 5.667142224688496555e+01 5.461164320845518461e+01 4.994876742701399053e+01 4.469349470129164104e+01 4.395231221507552988e+01 3.990579169871153198e+01 3.671208898629174655e+01 4.099522727391669719e+01 4.666722486324302110e+01 4.889177236739320165e+01 4.624505365049535044e+01 4.513391725669122678e+01 4.195712621175663060e+01 4.170427366733812846e+01 4.036531405545770212e+01 4.314116079843474694e+01 4.806238509809906390e+01 5.420481986252391948e+01 5.454730389966870518e+01 4.989639247255692567e+01 4.439721243416031626e+01 3.910955861214376483e+01 3.744115883206292494e+01 4.274531726636989504e+01 4.366439394315414546e+01 3.963077745572459065e+01 4.432919296465956194e+01 4.610882115388684355e+01 4.295254025342863002e+01 3.848215774079623941e+01 4.077603816410515236e+01 4.650011968322284162e+01 5.038478761614748436e+01 4.851785818537593542e+01 4.351802172754612741e+01 4.131753075844583378e+01 4.340914936392262291e+01 4.709521219341282006e+01 4.729365227075864198e+01 4.951393734058419227e+01 5.308395517241444850e+01 5.449615517001491583e+01 5.754272310993252404e+01 6.221587546999136720e+01 6.838220918718978680e+01 7.364735464223392114e+01 7.709452303156690789e+01 7.364516278393182347e+01 7.452748543477049736e+01 7.630541335631241395e+01 7.422199867338143520e+01 6.919050418472903630e+01 6.681512655700460357e+01 7.154080311981677198e+01 7.743762063172793830e+01 8.161534619679807179e+01 8.499541519707236148e+01 8.910926551688370978e+01 1.217178416898279103e-02
5.548828458689730736e-02 7.604850477613708470e+00 7.628448021831776948e+00 7.388788467018268413e+00 4.376372256411838357e+00 7.002409936071312124e+00 1.121684649569618486e+01 1.653730884806643431e+01 2.220739381151448555e+01 2.323738375544785129e+01 1.942767079976771072e+01 2.110868864394742417e+01 2.489314875553037965e+01 2.521637740135043515e+01 2.136981395288857399e+01 2.200095322513730167e+01 2.557919870990130207e+01 2.814930736689591839e+01 2.864278967644756335e+01 2.979372967003398287e+01 3.419072856501836810e+01 3.977565629546851511e+01 4.503440427965787762e+01 4.709685559564621826e+01 5.021926843430462384e+01 4.436775166881936627e+01 3.829483138440291867e+01 3.618944363763767313e+01 3.942577750689481775e+01 3.748804481903485453e+01 3.828117514721611769e+01 4.049311318034094853e+01 4.492164639334249188e+01 4.595690638586275156e+01 4.950236802694553262e+01 5.470502565026082209e+01 6.149933225721937902e+01 6.492530520690029050e+01 6.014311771398044471e+01 5.785239808537239270e+01 6.016162973984948081e+01 6.201672585184059727e+01 5.722976283767172134e+01 5.185138230332116649e+01 5.030482485352106892e+01 4.752579743843531901e+01 4.251755572232148239e+01 4.098244681275640744e+01 4.227745489647541888e+01 4.709732079419719497e+01 5.268811428834485611e+01 5.304241535905475757e+01 4.997187598172980216e+01 4.699442050371277446e+01 4.799269113370716866e+01 4.483497181291585321e+01 4.645404359943533734e+01 5.109498221742062896e+01 5.681086287577607408e+01 5.585239468199128510e+01 4.977431538903422847e+01 4.514112254264204438e+01 4.420731235959799221e+01 4.265895403159206012e+01 4.712300883720070033e+01 4.793257365371627543e+01 4.447620648485737149e+01 4.858476839898560939e+01 5.005116735221115221e+01 4.546687715115569972e+01 4.340024741323693291e+01 4.614443759278874779e+01 4.818868247203754152e+01 5.326693635408006600e+01 5.407488428362636057e+01 4.883961855081226844e+01 4.575635959431232891e+01 4.709673970253945186e+01 4.609192356056189510e+01 4.918107933271085841e+01 5.376316735897371757e+01 5.606159281186296539e+01 5.976436567356107332e+01 6.189277406324428199e+01 6.163343145892021369e+01 6.494619931055159157e+01 7.021549353961151496e+01 7.613353620500909358e+01 7.748634926862773398e+01 8.140387905404558921e+01 8.141305516983352675e+01 7.690392504296801235e+01 7.479041197587032741e+01 7.101038591309134063e+01 7.087390731299360880e+01 7.369743069116076128e+01 7.734872483788024056e+01 8.205074187657372420e+01 8.772722523413165163e+01 2.145892536042947121e-02
7.275102355802921805e-02 0.000000000000000000e+00 2.016122525545774202e+00 3.469867967590409386e+00 8.013264401262219394e+00 1.193479961527446065e+01 1.591360100347641904e+01 2.049653568241862800e+01 2.567972682476672830e+01 2.786527845885263233e+01 2.571760368942666730e+01 2.730795650559243271e+01 3.049268750817819296e+01 3.047438034272969531e+01 2.773395824322246384e+01 2.859878628298034187e+01 3.204889010854771669e+01 3.528310251412241172e+01 3.538222530172572533e+01 3.526041490987716998e+01 3.879374037767942696e+01 4.397186034395063103e+01 4.975399985303639028e+01 5.230691637900156366e+01 5.448836115412503034e+01 4.838116992399958605e+01 4.374438796932788875e+01 4.249960110407668878e+01 4.490184600876567345e+01 4.407291737005240861e+01 4.499163579730497275e+01 4.615998984499643143e+01 4.949902457361898200e+01 5.095642116042999703e+01 5.431106614181708636e+01 5.873717595575715222e+01 6.402180671772120490e+01 6.791192434015461288e+01 6.537943761547440147e+01 6.436025642366033139e+01 6.651410330455978226e+01 6.529419642420192815e+01 5.913702471723692611e+01 5.650520858275338298e+01 5.566402308654625131e+01 5.011749443329039622e+01 4.773748306072366177e+01 4.753499236814102602e+01 4.777998964959709127e+01 5.154332188159323636e+01 5.670862463504358431e+01 5.928617879048343298e+01 5.640825432881384671e+01 5.343636794814818813e+01 5.361166414171440664e+01 5.126765323094794269e+01 5.288096897576517108e+01 5.678753781890320340e+01 6.083333273792779039e+01 5.907909804544079435e+01 5.402583664602821045e+01 5.043081881167351099e+01 5.055849572332420649e+01 4.884533651935804954e+01 5.155087771816864262e+01 5.230797908468601065e+01 5.017344091776504911e+01 5.284812820071785922e+01 5.398920565144484129e+01 5.096487193511799774e+01 4.993668499483815992e+01 5.243112467003255972e+01 5.338709739365750551e+01 5.692865250627191642e+01 5.864219139615457266e+01 5.522897434270338834e+01 5.218787439229227232e+01 5.253154387515142787e+01 5.088488597910452427e+01 5.410597801032093201e+01 5.941123181321297864e+01 6.181008143800909238e+01 6.544906756554600236e+01 6.811267695554663248e+01 6.680282001902932620e+01 6.940550286876711539e+01 7.383579701958370833e+01 7.930400727102329483e+01 8.317029752204534532e+01 8.659803138582505255e+01 8.565849400275929781e+01 8.222122172800675344e+01 8.068492773219475112e+01 7.739962413470401259e+01 7.614678369044065676e+01 7.830032407779931702e+01 8.166093167814808851e+01 8.587724881827213608e+01 9.023385174264070940e+01 4.837923317555280212e-02
0.000000000000000000e+00 3.606697587273386546e-02 7.276529979300210005e-02 1.126678047201734589e-02 6.077706500651891552e-02 8.157494617717946095e-02 9.812693826021787191e-02 6.374484132173141929e-03 7.999597483605283554e-02 9.694855527519353339e-03 4.008677476828335223e-02 6.621576689918050318e-02 9.655859092365152996e-02 4.809000589538479919e-02 2.641122865423586180e-02 5.874171196226891933e-02 5.857857034124646853e-03 5.956969682751154377e-02 4.425232955180362360e-02 5.334076871490230770e-02 5.922478149248967816e-02 4.094729642959844818e-02 7.035007684524716143e-02 3.893498435623632230e-03 1.034356621687972967e-02 2.822571087981572482e-02 1.531149012698717130e-02 3.000533673618133168e-02 3.188578568554999160e-02 6.965302607163458004e-02 6.766269085776974168e-02 9.424639223691476386e-02 4.087464685074108928e-02 5.807789413659212446e-02 7.069547351437496796e-02 1.088116545134150057e-02 3.972157836884322724e-02 3.446761470475388778e-02 6.299780448844985448e-02 3.695675853095292673e-02 1.565475384958371283e-02 7.882936473552582674e-03 8.588012184319544773e-02 9.112074600711930761e-02 8.324901393004859040e-02 6.226574113332976335e-02 2.873516128170027287e-02 4.012328019713491678e-02 6.185371979337375009e-02 7.817385533132570341e-02 9.148754272943517007e-02 8.984723383571668887e-02 6.464429490065348727e-02 3.893599363003413805e-02 8.575496937258039742e-02 2.407163566004110258e-02 4.681674053524183948e-02 8.643274193156981478e-02 5.987829775012420974e-02 9.680153247534087346e-02 4.245798944447935069e-02 4.155401499934681386e-02 7.082296158623720139e-02 7.013332482192909112e-02 9.041855094788861513e-02 3.497780521958510080e-02 4.006404863460105714e-02 3.915880669065767428e-02 3.057862854176847042e-02 2.108023241757481930e-02 2.507811026321422540e-02 6.051174343861774607e-02 9.517435703196300278e-02 1.214781757691301214e-02 5.002043233145681000e-02 6.320004968183150218e-02 3.844793340220189343e-02 2.996954532779405687e-03 2.460818038500808130e-02 7.744714544443481730e-02 6.571349595428779833e-02 3.930492997194855176e-02 8.902162562051695038e-02 9.269374991815645948e-02 4.468673031909464917e-03 5.391912948634820790e-02 4.868532090877826513e-02 7.353740217436244286e-02 4.004621389833121908e-02 2.019556371688502328e-02 8.861973843233256209e-02 7.738689892850668384e-02 5.046132281136520709e-02 2.799001331203133588e-02 9.086002761494765823e-02 4.692352512323375718e-02 5.229010357616194204e-02 1.191741088902377108e-02 3.745217286066189477e-02 3.750294928083145601e-02
