ncols 100
nrows 38
xllcorner 0
yllcorner 220
cellsize 10.0
3.878634033380564533e-02 5.990905866640262900e+01 5.477871527694891540e+01 4.755672603192048342e+01 4.188603836761953403e+01 3.914931928291363050e+01 3.577151623699921856e+01 3.676978555462427067e+01 3.485173072414927731e+01 3.084359486580419940e+01 3.144804893933739720e+01 3.586798924691995438e+01 3.679102088941997550e+01 3.704519615000936739e+01 3.904198474759091653e+01 3.560047483656463641e+01 3.152617634097745736e+01 2.762248420361473222e+01 2.321994457120901600e+01 1.928835875006724621e+01 2.114266078123134207e+01 2.603007207632525777e+01 3.192416962045966145e+01 3.695734850549624895e+01 3.822009551888560708e+01 4.144548249628824976e+01 4.490293089062804199e+01 4.772105965858236942e+01 5.007921445796651483e+01 4.515180834497940765e+01 4.083119447900351418e+01 4.290230685199687599e+01 4.588330220828471084e+01 4.451529676532339863e+01 4.312735597499783324e+01 4.729430311961273503e+01 5.344117676695090324e+01 5.334414859814630461e+01 4.979658215664596099e+01 4.831823301758955580e+01 5.040390645694736804e+01 4.546203349231472401e+01 4.008014466457433400e+01 3.446825405176042523e+01 2.792971185600142192e+01 2.409464876582475767e+01 2.350508623638100403e+01 2.103582016958852563e+01 2.559195066384308603e+01 2.868878122326107416e+01 3.059704469225202317e+01 3.006545412549209217e+01 3.451719567519501197e+01 3.976077403462097948e+01 4.567016334130027388e+01 4.331619920955156999e+01 3.630199429934643973e+01 3.177647979178772530e+01 3.550072160793127551e+01 4.189791099636867244e+01 4.215849339222585712e+01 3.888120350216404120e+01 3.665260446491365087e+01 3.997384284299672430e+01 4.279110752915920557e+01 4.759913790044531368e+01 5.288568088549590129e+01 5.449233457978029094e+01 5.731077336422624313e+01 6.387933441292919667e+01 6.858209532987902435e+01 6.449379417603329046e+01 5.813797909528716445e+01 5.312428096212542528e+01 5.051565578772963505e+01 4.634392894183846323e+01 5.165467033672658204e+01 5.812900252779714094e+01 5.660016946465043475e+01 5.093579315153676390e+01 5.221641072627626556e+01 5.560185605691021493e+01 6.101444556379308182e+01 6.767019574584867314e+01 7.468342041791581210e+01 7.740320118464997279e+01 7.431249086228648082e+01 7.142750384209556103e+01 7.036735533904624162e+01 6.981025858762642144e+01 6.542959087355167469e+01 6.015470306165420311e+01 5.601175573437572552e+01 5.128567437003122365e+01 4.533108243047569630e+01 4.163711008866406615e+01 4.350078395698043465e+01 4.796049285552613384e+01 5.277863128650163560e+01 9.818670078189446759e-02
4.333685785204446222e-02 5.825412798382363633e+01 5.511474303044585810e+01 4.968080793329735201e+01 4.638396403924453182e+01 4.193488288571087708e+01 4.017383052682675526e+01 4.207680332416622093e+01 3.876550671428201866e+01 3.486251669463614888e+01 3.793364535166917761e+01 4.091112033328801800e+01 3.965658062098749781e+01 3.690786152324789526e+01 3.655666243798127368e+01 3.359267716623315891e+01 3.134834797090370273e+01 2.588307568661020497e+01 2.241233732809014256e+01 1.957206410733481761e+01 2.396044619352312921e+01 2.830551000960927510e+01 3.376155647939707194e+01 3.635435787639188021e+01 3.977784549643406109e+01 4.417974373426135770e+01 4.451882802374852588e+01 4.236317581173870650e+01 4.591874763795406977e+01 4.705728494764245795e+01 4.225487098478610193e+01 3.841740210460726956e+01 3.972099244994728195e+01 3.936644995237433164e+01 4.286496776408997533e+01 4.926573244788107075e+01 5.445250418066664366e+01 5.055672692398644585e+01 4.515683813310560879e+01 4.321253866310414082e+01 4.654724787862426894e+01 4.330915168895805323e+01 3.689543338834318575e+01 3.159449654845822408e+01 2.744036386371185188e+01 2.523700307332995862e+01 2.157033502790405066e+01 2.280315307634430511e+01 2.488898223850930691e+01 2.456304785185067985e+01 2.634635330597290093e+01 2.915799319458938754e+01 3.452556569792741925e+01 4.148632992127623709e+01 4.711408662403881920e+01 4.216701624983770103e+01 3.459675439607818248e+01 2.996117480679807343e+01 3.491482582214822372e+01 4.102708138109044000e+01 3.844793200873063199e+01 3.413077696766725921e+01 3.774535289363915069e+01 4.351840774740899320e+01 4.742941112193877728e+01 5.008699408124165586e+01 4.997646604416208760e+01 5.059105068069979438e+01 5.541765086866731593e+01 6.207786901391812506e+01 6.375712273839926780e+01 6.208938613401138440e+01 5.970367153303212859e+01 5.344256992300821452e+01 4.759227624053897898e+01 4.444729653800902724e+01 4.920401040846306273e+01 5.532127243337053102e+01 5.370682751106073738e+01 4.857832484970332843e+01 5.234168164170612414e+01 5.702170195749192771e+01 6.193322916896553920e+01 6.787417348190284372e+01 7.458159402462125342e+01 7.239473869258745253e+01 7.107592370551653005e+01 6.572159040114695472e+01 6.407741391852707125e+01 6.681419085611636888e+01 6.461876519575493205e+01 6.070829581769594085e+01 5.870922985674451411e+01 5.330743178700731733e+01 4.905381636931502953e+01 4.404798656621350972e+01 4.025503382838662247e+01 4.417410754035806519e+01 5.041628200944044380e+01 7.006133590058766236e-02
7.488791594575414101e-02 5.196673731885316982e+01 5.085358856462003274e+01 5.193727733803424229e+01 5.092627065783499773e+01 4.771640541665572499e+01 4.661848468218816066e+01 4.528448466418775809e+01 4.065470533113215623e+01 4.095785196023953745e+01 4.317400598628191943e+01 4.279761032429289003e+01 3.722045898553882637e+01 3.163400053941828105e+01 2.984480849311091077e+01 2.679088311912033404e+01 2.594271911305616030e+01 2.276879445523765355e+01 1.905757235079482115e+01 2.257817950918663996e+01 2.732689796113059799e+01 3.145031123170284459e+01 3.091544603365045774e+01 3.155326254319255952e+01 3.614369393034706945e+01 4.171151967404598082e+01 4.082390297224259257e+01 3.676091846681957520e+01 4.155119028081723087e+01 4.497595288189535978e+01 4.130323991212820545e+01 3.741610602475947189e+01 3.631463472381351920e+01 4.066570641477278514e+01 4.679072602872169995e+01 5.091748667310020693e+01 4.952647456384586633e+01 4.580789652676003243e+01 4.256669793700789484e+01 3.899303381113647760e+01 4.362710596297333865e+01 4.458121107009986872e+01 4.128088779328484037e+01 3.684512176019160989e+01 3.279737522009712336e+01 2.908713378720485565e+01 2.412938464398406424e+01 1.966434670009952157e+01 2.171096691511288412e+01 2.665043965695195993e+01 3.073649932734848989e+01 3.453714835054181265e+01 3.683090999158191181e+01 4.135444367450735825e+01 4.153719354376889328e+01 4.012968553058753685e+01 3.341379008414010343e+01 2.801374569095987610e+01 3.117721324057865218e+01 3.598522962862643482e+01 3.470029160667345280e+01 3.226239250055001406e+01 3.668405440811209672e+01 4.337046743094821011e+01 4.704113107425274620e+01 4.568841682989891240e+01 4.480924277093684083e+01 4.934175418746426089e+01 5.511913907143136981e+01 6.049706912594144370e+01 6.153517760332116637e+01 5.696072741335758849e+01 5.547309486236176923e+01 5.220512448901345692e+01 4.795367385990822129e+01 4.396674093490831581e+01 4.893708808445177283e+01 5.398331884277315851e+01 5.124883918254045767e+01 4.602211395218022005e+01 4.813043726142278445e+01 5.257937877043785591e+01 5.836659232438735501e+01 6.547052729322965092e+01 7.065059240244900707e+01 6.754953468291058982e+01 6.945478491766012041e+01 6.363708636212734149e+01 5.906611072913957372e+01 6.256217941686242767e+01 6.002400747495984490e+01 5.551416658363076806e+01 5.736928784807028592e+01 5.620985006325086886e+01 5.072777445695353293e+01 4.393544024558518402e+01 3.926301639597131299e+01 4.344592691916395921e+01 4.984984396028387721e+01 5.919871739677486783e-02
5.455303688726272776e-02 4.840063919263381109e+01 4.490521904576691270e+01 4.893033556920705252e+01 5.029022028284474288e+01 4.801981338715194170e+01 4.961884512045794793e+01 4.869990660743749089e+01 4.579775511053985326e+01 4.744082264728241682e+01 4.556777839548809794e+01 4.054629702159781601e+01 3.401945062024957167e+01 2.941899502281059142e+01 2.520997317882707733e+01 2.242879450841254396e+01 2.102012326822189792e+01 1.894222449119106244e+01 1.801867258523560977e+01 2.194365806773743799e+01 2.582698578860261662e+01 2.634267243657711077e+01 2.647945066543601200e+01 3.119393266719291091e+01 3.709960405860029908e+01 4.101818446021599129e+01 3.739036805332055735e+01 3.236346502864829233e+01 3.710304510894704322e+01 3.925262059541991277e+01 3.557552765306468245e+01 3.409956017823459007e+01 3.767295593484314509e+01 4.230505845617234684e+01 4.780873595603264903e+01 4.750789983109828540e+01 4.377218420241199937e+01 3.929076884858372409e+01 3.716980534030142991e+01 3.618501897374871135e+01 4.140759508737303918e+01 4.366316024450216560e+01 4.521352181127956271e+01 3.954165191622419684e+01 3.433804993060343236e+01 2.967665366854675213e+01 2.418262238103478978e+01 1.941168220108251674e+01 2.382698244074133243e+01 2.888684614736892087e+01 3.275030440342259652e+01 3.873468583281508160e+01 4.076801507441463457e+01 3.848494966083909219e+01 3.467596586662244817e+01 3.434109377998532864e+01 2.954793613900196192e+01 2.642341158830790349e+01 2.789794700815183859e+01 3.160298855373024551e+01 3.095829550204553726e+01 3.352398400102920561e+01 3.695696830394388854e+01 4.119207147833770932e+01 4.199970451361716783e+01 4.074584242438080395e+01 4.241590966465687984e+01 4.644122839433408956e+01 5.175423403454109206e+01 5.826241640951232625e+01 6.081801233473705537e+01 5.544720609990407922e+01 5.090060272077932524e+01 4.794152962219300917e+01 4.506994564397008673e+01 4.308537641445936828e+01 4.623930242103581634e+01 4.825431086584550400e+01 4.730185132080951860e+01 4.499867468090558020e+01 4.832682622460148281e+01 5.405487708928589541e+01 6.074398405122480682e+01 6.574995307253988130e+01 6.737982816729160618e+01 6.350116269137586045e+01 6.307552480476174850e+01 5.977461079794834120e+01 5.529543871613795858e+01 5.882341299879534802e+01 5.620581249237446997e+01 5.068400281013171593e+01 5.065934738210445687e+01 5.088536436739610735e+01 4.845150847164092056e+01 4.408552741387410379e+01 3.967270373693740027e+01 4.307285383073833174e+01 4.754196529618637612e+01 1.570286808557773764e-02
6.825597533913130288e-02 4.460251509593945229e+01 4.034240498816013343e+01 4.485020313299801131e+01 4.590879319348967869e+01 4.242923931694647166e+01 4.632813607673048040e+01 4.873962556662493739e+01 5.035869000229213555e+01 4.931014522834148295e+01 4.326646082946986382e+01 3.694873991035316863e+01 3.250024158829025112e+01 2.872087995858345977e+01 2.924802712803717597e+01 2.726020911417385761e+01 2.617608816817262252e+01 2.315939737400871223e+01 2.173404472313094615e+01 1.907730664789389152e+01 2.150136172007875501e+01 2.205595116087805962e+01 2.650911639328764124e+01 3.046590350692325089e+01 3.314393648794408875e+01 3.728876517220139419e+01 3.384711751616750774e+01 2.898468265552358503e+01 3.329452537127438205e+01 3.404902318375854264e+01 3.238662134157954142e+01 3.608764348828750457e+01 3.932933418572398665e+01 4.435487719062070511e+01 4.540750594348174474e+01 4.192308301581097396e+01 3.712355458219660420e+01 3.561983380884301909e+01 3.239252654692523947e+01 3.635423060741904067e+01 4.043884487572378106e+01 3.844731214156387011e+01 4.129487210701525868e+01 3.755622014902917272e+01 3.111701036561905909e+01 2.600149953114026857e+01 2.173825053669769858e+01 1.926006208382235130e+01 2.266951620214945962e+01 2.558091755018622848e+01 3.150664331511552518e+01 3.630140985271989962e+01 3.874587785733246648e+01 3.390669670144690429e+01 2.856513618349217865e+01 2.906409628040301740e+01 2.696767455152291149e+01 2.937676493041168513e+01 3.127443063755837471e+01 3.018148888262414786e+01 3.247898416831552026e+01 3.159631092887693882e+01 3.322893697083716802e+01 3.700329346889165549e+01 3.786625939408486374e+01 4.217459186351597111e+01 4.681667121088698025e+01 5.069670036852895123e+01 5.498203872114221724e+01 5.991024121195655283e+01 6.322988060797328558e+01 5.989046510752592667e+01 5.488581106023407585e+01 5.301604139686846651e+01 4.981563115088186322e+01 4.608772453021953908e+01 4.308593578502421195e+01 4.441547986570967765e+01 4.361824161271738376e+01 4.752422697929943496e+01 5.252393798929772828e+01 5.718286186539440052e+01 5.968419048733737498e+01 6.090834957878580269e+01 6.359875550324731108e+01 6.286717443331593813e+01 5.817199322164435671e+01 5.448267939350724731e+01 5.205796817975360113e+01 5.451563519367324062e+01 5.453260971761735476e+01 4.921083390054599960e+01 4.505708181148762037e+01 4.749846422448990069e+01 4.380267919305936886e+01 4.247297107899959911e+01 4.121997071003895741e+01 4.047117342850995669e+01 4.492226422286151433e+01 2.495446930935284538e-02
7.681000663350590063e-03 4.149540604956898449e+01 3.697948708511286497e+01 4.098794139777612600e+01 4.161002871864859998e+01 3.729527359192093172e+01 4.107870817587507872e+01 4.399124677831991193e+01 4.893775945923519544e+01 4.934802744502434280e+01 4.386216228311600673e+01 3.680372624475322851e+01 3.240611728429517768e+01 3.348868822577402682e+01 3.536354544254902521e+01 3.396276446123607684e+01 3.247931249394530795e+01 2.899981901037817167e+01 2.483966278959323404e+01 2.050520302839451503e+01 1.894857556880556615e+01 2.291433233042113216e+01 2.732058747787233344e+01 2.636793118595600305e+01 3.079581012410622876e+01 3.307241208716467895e+01 2.972529994370332318e+01 2.670812042761824756e+01 2.995844969636897304e+01 3.031827684951718638e+01 3.423163521118794250e+01 3.978726257155175716e+01 4.415583630140708493e+01 4.607314517380863350e+01 4.066372088278703956e+01 3.488173636462864380e+01 3.150330654896401938e+01 3.114004091645768213e+01 3.005909550734077840e+01 3.479308323690829496e+01 3.675509538904936591e+01 3.367580283263387741e+01 3.818444540581955948e+01 3.890291266699000516e+01 3.566059726868039803e+01 3.129633467749313525e+01 2.614621412623719010e+01 2.263379604644186571e+01 1.964514379654902498e+01 2.438005619232364651e+01 2.925531209900601937e+01 3.010355674276158311e+01 3.213050606918191932e+01 2.861766927450867115e+01 2.456119935523224029e+01 2.557527672528573959e+01 2.917974695943837560e+01 3.013972809235041339e+01 3.367037562423540464e+01 3.461781044538914642e+01 3.597324427600937469e+01 3.605089300281188969e+01 3.680288170160865491e+01 3.550178706548448559e+01 3.831238397725427092e+01 4.248718638666524328e+01 4.583071351256214854e+01 4.894273658018073547e+01 5.244741682092742963e+01 5.671798960816438040e+01 6.102300108342166141e+01 6.345105250490649240e+01 6.138043386102206966e+01 5.847432141166738262e+01 5.236798619438377500e+01 4.746951959725402048e+01 4.473208332803374532e+01 4.186178925025592434e+01 4.360996572600533483e+01 4.763751340810268431e+01 5.053666067943629514e+01 5.381498420180153630e+01 5.301311688335298555e+01 5.370343981786167831e+01 5.899734335055276091e+01 6.302302163993336137e+01 5.892643256299182752e+01 5.481284877470500305e+01 5.148444916635595803e+01 4.994348507804380688e+01 5.078606342658019202e+01 4.512289920681736533e+01 4.126074205574696663e+01 4.468091048879050220e+01 4.175972024377057323e+01 3.867484924760152865e+01 3.854447930038232073e+01 4.286270114588472779e+01 4.758296071880972988e+01 6.258671202607477002e-02
4.967295210247968384e-03 3.977477085497504561e+01 3.481643308298792761e+01 3.610834966515639621e+01 3.724787464990293273e+01 3.312030702560918627e+01 3.611569910798296945e+01 4.179070489755486761e+01 4.616372876788367563e+01 4.640038971767611287e+01 4.120589548789010337e+01 3.678571879708087522e+01 3.730405859440005401e+01 3.892212659772307859e+01 3.762256216400427888e+01 3.427924123353196251e+01 3.124305700399344232e+01 2.824309835409137293e+01 2.201393443354333357e+01 1.746175489469716879e+01 2.099836600833120670e+01 2.434386065661994181e+01 2.361088248227297015e+01 2.274567549202292227e+01 2.606821653531712002e+01 2.846000674778731465e+01 2.514885685521305447e+01 2.785524514393674878e+01 2.843856177833001198e+01 3.195273025393485256e+01 3.537587761889715665e+01 4.077817148352984589e+01 4.562671396281722025e+01 4.213013103417679872e+01 3.600265133318075783e+01 2.965324348580757885e+01 2.818198467705771293e+01 2.716372182901371701e+01 3.083682879370217123e+01 3.344286635252461082e+01 3.142348940888444986e+01 3.029545348737946142e+01 3.518149070928555489e+01 3.830268641463211310e+01 4.039095381621345382e+01 3.665404449516787366e+01 3.016427986773243575e+01 2.307987701281976456e+01 1.848913820042876210e+01 2.283752422896641576e+01 2.352648607017934523e+01 2.494607072544096837e+01 2.744215917784016057e+01 2.445080108965067822e+01 2.592288379313179192e+01 2.921403988199236323e+01 3.345323695350685966e+01 3.477864657176312591e+01 3.501091727679975918e+01 3.874119212669872070e+01 4.219646374979934222e+01 4.327006686879369823e+01 4.159762949793213949e+01 3.909956442328101645e+01 3.623680616105897911e+01 3.829477884789654496e+01 4.114636964957183096e+01 4.419067337236049298e+01 4.764699347456362943e+01 5.212324231082827453e+01 5.775719864104510748e+01 6.344162557435890903e+01 6.693336717341625786e+01 6.334933122949041007e+01 5.817190226153560673e+01 5.262461670109908596e+01 4.719105037630798449e+01 4.439001085713682215e+01 4.085839538659911341e+01 4.313231661987794752e+01 4.480030312218313071e+01 4.876985042251639868e+01 4.703405739103605754e+01 4.877468585264051626e+01 5.494665582521915326e+01 5.955242939201917096e+01 5.553677987799599691e+01 5.103755784995610156e+01 4.802794343284496392e+01 4.871887654258647871e+01 4.873630334990392043e+01 4.365495189511098317e+01 3.929407422875072342e+01 4.067035548893721142e+01 3.900079762571175479e+01 4.157126883075356716e+01 4.148531234268097734e+01 4.481805292294876608e+01 5.070754928308209486e+01 9.347845748883555628e-02
3.376673725333138171e-02 4.198098481607976851e+01 3.626967924062544313e+01 3.171609455930038024e+01 3.193335962904775727e+01 3.103383470094809837e+01 3.594991080011860163e+01 3.960347532671013937e+01 4.059939762701835519e+01 4.422403123586197893e+01 4.412601342429926632e+01 4.179516700890155079e+01 4.319531215243662814e+01 4.095559426620798149e+01 3.519163263643055473e+01 3.002479103734135180e+01 2.647811017434267455e+01 2.557875164180803296e+01 2.145535042685909843e+01 1.657091628057060007e+01 2.064534522667002037e+01 2.132894851926126734e+01 1.956522690815935661e+01 2.147629082338859874e+01 2.182776382937162651e+01 2.471360006974218493e+01 2.387212122875673970e+01 2.857556172074533052e+01 3.213877525249648670e+01 3.445822444379069793e+01 3.974148156142288713e+01 4.394732035231973555e+01 4.381807995640900089e+01 3.829021300036320241e+01 3.232906025940258132e+01 2.730888484258409576e+01 2.478150205910466042e+01 2.627120418572059179e+01 2.975168414945036233e+01 3.008919863363628622e+01 2.609475665531036626e+01 2.936935615957431622e+01 3.177012618693084178e+01 3.360382313636169727e+01 3.818995537623774084e+01 3.583069960340676374e+01 3.013775202846423085e+01 2.329272728651654845e+01 1.794815816701257205e+01 2.112778039832626220e+01 2.021897570778855879e+01 2.322465116695774512e+01 2.509835382163597473e+01 2.454322506162833406e+01 2.356157608543573190e+01 2.829486371410841983e+01 3.485860777631206986e+01 3.883529456430138538e+01 3.959746221965659174e+01 4.028365893263931952e+01 4.438061604580153130e+01 4.929584395740577207e+01 4.781131519094514459e+01 4.292396061924002026e+01 3.853152612488757711e+01 4.179238538661458335e+01 4.538801784403835171e+01 4.916510315479012405e+01 5.288753111259055117e+01 5.698120921621083568e+01 6.047818693197316975e+01 6.190674915971948877e+01 6.292345582487484990e+01 6.692478558368560471e+01 6.333620589401254364e+01 5.665725083116174687e+01 5.287683136607832779e+01 4.896047000352129430e+01 4.290632692656163982e+01 3.979570835127949380e+01 4.165401650997043248e+01 4.349556793435169766e+01 4.339836174077940711e+01 4.776768698009122716e+01 5.227945950906924821e+01 5.670611438009831318e+01 5.777002842692603934e+01 5.512695079682211485e+01 5.053552172531068010e+01 4.600021744225380615e+01 4.514789714781828422e+01 4.148510348205572029e+01 4.050261996973124212e+01 3.755017406472877184e+01 4.147831611121302586e+01 4.584792646366643964e+01 4.758268428912476367e+01 4.947515418741293303e+01 5.485420248720119929e+01 3.950821598524816014e-02
4.287772958673950058e-02 4.250078285670957001e+01 3.720191937045181874e+01 3.159303996223910005e+01 2.790924238994053042e+01 3.153666798527704529e+01 3.584072446420962166e+01 3.391737536856675206e+01 3.521368292555122537e+01 4.123220269762974510e+01 4.384452492110064270e+01 4.199175145401022746e+01 4.420082607391167784e+01 4.332843616136610621e+01 3.882072551164915808e+01 3.347492884398927515e+01 2.713048742172646755e+01 2.229004424830029052e+01 2.013781374034260097e+01 1.633218895452187525e+01 1.897459284918589262e+01 1.833300171413002388e+01 2.104850109676349135e+01 2.031119912799424299e+01 2.360072783165154675e+01 2.329451327818647144e+01 2.600328941026638319e+01 2.929177604425951387e+01 3.545218869602842915e+01 3.999491042443035838e+01 4.359753314014388792e+01 4.408175358370161945e+01 4.125884128251338723e+01 3.888968320544415036e+01 3.580522776232352555e+01 3.239731396992833368e+01 2.751000571682408946e+01 2.333632309117139059e+01 2.509846025008359760e+01 2.665607356475290146e+01 2.246631960472559797e+01 2.596630807909306071e+01 2.743801198207211200e+01 3.196655785424414375e+01 3.706311632222643482e+01 3.355767594849891111e+01 2.688350674640837568e+01 2.133184814719775346e+01 1.742763114258563206e+01 1.749877492261974510e+01 2.133417084845305567e+01 2.045682561219191697e+01 2.094676972010413607e+01 2.178991142077664378e+01 2.463400462646396960e+01 2.662398243351807281e+01 3.105924169426187476e+01 3.642591815631427465e+01 4.239817034476327251e+01 4.496054722335897935e+01 4.885160770652633744e+01 5.290338655843667937e+01 5.018314965324887567e+01 4.446599140981800957e+01 4.231233751414228550e+01 4.184664890762672229e+01 4.566936024082994550e+01 5.210384402794409908e+01 5.724858981025279547e+01 6.177941557086462154e+01 6.208002461047272647e+01 5.794154028757620267e+01 5.806127020030528030e+01 6.048158736870936991e+01 5.917992534811817507e+01 5.491998548779321254e+01 5.655190997172092437e+01 5.356604848010482556e+01 4.738083381628442936e+01 4.200966751366306795e+01 3.818817838136224907e+01 3.822155194371233478e+01 4.254235528032678815e+01 4.503393749692622805e+01 4.747283157039976942e+01 5.313187572008709481e+01 5.524374600935069424e+01 5.672994892415778878e+01 5.348087637174474196e+01 4.852055559233056670e+01 4.420328802346210040e+01 4.437486893505938923e+01 4.126279919250620054e+01 3.677427619290796912e+01 4.187788352219591559e+01 4.683500332806864463e+01 5.108034200235012179e+01 5.491858253061185025e+01 5.928807173020609866e+01 1.828547957255299838e-02
1.289815604239990046e-02 3.993164761234649518e+01 3.364968741707036770e+01 2.880637648022655384e+01 2.598412107833300411e+01 2.878137266895742741e+01 3.152816367348651738e+01 2.897754547030197614e+01 3.287116737084866713e+01 3.946868381775180978e+01 4.004407540861995329e+01 3.644091421551624421e+01 4.022163745444039762e+01 4.112086649032674757e+01 3.934423719978241252e+01 3.347606890767661980e+01 2.764408725594602956e+01 2.379202242407687251e+01 1.890016204978585534e+01 1.810353139334314676e+01 1.699064900049751969e+01 2.099186162384201992e+01 2.504889593492397992e+01 2.443393449073577983e+01 2.823900479750392734e+01 2.803756821537291444e+01 2.729449130521728151e+01 3.169178903346865894e+01 3.806305564075832137e+01 4.413499567865898143e+01 4.550291364968297358e+01 4.126350096174016358e+01 3.571573483143627925e+01 3.331684802877502705e+01 3.409824923063030155e+01 3.558062261639216217e+01 3.055703694668307335e+01 2.453582330101873765e+01 2.049160092515956677e+01 2.304784690448885343e+01 1.928279704902035263e+01 2.211967920414055300e+01 2.821600505175466367e+01 3.433440465606022229e+01 3.638596916053774777e+01 3.512310196403615237e+01 3.075612713592696679e+01 2.610981405235781949e+01 2.170749267966660057e+01 1.767548259442782665e+01 2.217281416130725091e+01 2.465260748933116730e+01 2.623676912012570739e+01 2.636638605032757710e+01 2.488248838377142391e+01 2.797180367119819522e+01 3.220687287788135222e+01 3.732145116725062195e+01 4.397982741820300134e+01 4.457055729248850184e+01 4.799482537213459210e+01 5.209326945366587580e+01 5.301937771545161127e+01 4.987677911485175741e+01 4.934101920201695179e+01 4.590307107375505069e+01 4.599915397478829959e+01 4.968728635556351492e+01 5.481709466836548472e+01 6.120482458814611704e+01 6.397046724184284727e+01 5.777596852176561271e+01 5.303538983619027647e+01 5.390992389987589206e+01 5.409898692845521850e+01 5.016471839958094137e+01 5.425112355493798333e+01 5.449416525094566310e+01 4.863150460951230514e+01 4.341814855359558578e+01 4.090407999475300471e+01 3.711311224275210918e+01 3.936834991208913692e+01 4.088903776792741240e+01 4.651116857176818087e+01 5.154938140861870011e+01 4.919646780228828931e+01 5.054327634725591167e+01 5.264539233861198397e+01 5.126542776183180905e+01 4.792203033721477112e+01 4.646175505345782142e+01 4.051375018046287835e+01 3.604457584665988890e+01 4.033921451050615303e+01 4.322273848089981385e+01 4.888052272667334108e+01 5.463469452641352575e+01 6.119326542552244064e+01 3.093468531329978191e-02
6.548447405171775246e-03 4.104768812016826018e+01 3.558375187120562089e+01 3.305346385029825029e+01 2.858131272678577162e+01 2.529406940276317073e+01 2.650118510588362142e+01 2.579430874932905482e+01 3.087986734150409873e+01 3.656825308151984188e+01 3.606535480386696690e+01 3.148910506152443389e+01 3.506803948924950021e+01 3.530914224451692718e+01 3.821651123166977015e+01 3.687682718856348174e+01 3.258069592526440061e+01 2.745948745789105772e+01 2.091829312586943601e+01 1.665189119294458919e+01 1.873682163017622671e+01 2.324143755848121273e+01 2.818431920269018320e+01 2.997764449289441657e+01 3.341652805873906829e+01 3.466453444070158696e+01 3.250251363347909006e+01 3.709401915336762556e+01 4.255863734148818622e+01 4.509023909366182892e+01 4.073299856714928069e+01 3.790806415612482994e+01 3.432889883568829248e+01 2.900072152702511019e+01 2.811379755338099073e+01 3.142378986603828039e+01 2.980870051795660558e+01 2.374760288208003800e+01 1.886956097744166527e+01 1.989233392447609106e+01 1.737917174457583158e+01 2.265331800967442533e+01 2.953037536169465227e+01 3.264914732820659538e+01 3.125651873120804680e+01 3.361494567925419830e+01 3.142459517238206956e+01 2.634764218596874130e+01 2.170294143935847941e+01 1.795446033987820300e+01 2.147070411250227551e+01 2.641843656954651465e+01 3.226197566539131145e+01 3.194032937545586748e+01 2.935768252085972918e+01 2.718539524266789442e+01 2.883680496157182205e+01 3.382432127458504567e+01 3.823801131760234995e+01 3.899611099270151016e+01 4.328495688570826161e+01 4.928805997071673772e+01 5.487331366534683497e+01 5.610830764093425671e+01 5.538261826783910635e+01 5.223325689826862828e+01 5.151453986859503686e+01 5.441942104700339655e+01 5.870499253606584489e+01 6.344088345882843782e+01 6.469419886468507741e+01 5.857614896517605274e+01 5.269904076573573803e+01 4.879136290879619509e+01 4.887509044062110775e+01 4.589997399807661083e+01 5.072098184796692522e+01 5.442687192455994705e+01 5.240821029814478038e+01 4.889549332369742274e+01 4.511493706064084819e+01 3.961582388836635005e+01 3.603040289571768540e+01 4.061904791563242156e+01 4.751977652857805623e+01 4.896482525657391704e+01 4.437469256232185444e+01 4.371645730871877333e+01 4.833423051540053450e+01 5.008055662540205333e+01 4.700426090721764183e+01 4.454211589382964576e+01 3.993389753786673424e+01 3.609116107638384108e+01 3.876600828068063720e+01 4.403829612885272127e+01 4.789750810343075926e+01 5.363795659448383191e+01 6.023016332589900657e+01 1.833823077454169864e-02
4.790414149675031874e-02 4.506090128185541488e+01 4.104863429595454249e+01 3.652976187423729471e+01 3.058378663452544544e+01 2.725505754363607025e+01 2.346222453081347226e+01 2.444634244453426319e+01 2.710903451121334129e+01 3.253464686649401472e+01 3.245374802728536423e+01 2.771894531439809128e+01 2.898545175857646683e+01 3.021191786077659458e+01 3.570694364740452897e+01 3.813041776543059314e+01 3.377492297927972942e+01 2.830495506325211608e+01 2.167048674317268109e+01 1.807158966425510371e+01 1.611698953177036842e+01 1.977346696800027104e+01 2.535721828661784016e+01 2.943236309295358666e+01 3.376015527547681216e+01 3.786892571720236589e+01 3.805416598688195506e+01 4.138048067677198816e+01 4.412963478225307767e+01 4.189986887977968166e+01 3.566555962744862285e+01 3.245698182187526015e+01 3.476235741259946366e+01 2.966460726214414123e+01 2.480722654032785002e+01 2.602532143848186763e+01 2.781852922068038936e+01 2.580682434722644558e+01 2.082787008740024248e+01 1.648616151288599951e+01 1.503046006750336971e+01 1.981216891648161038e+01 2.563008402098601834e+01 2.595702616131665152e+01 2.593643858193583185e+01 2.988305066091994178e+01 2.873322143714040067e+01 2.279497317262339351e+01 1.870164157825819018e+01 2.023080086853427417e+01 2.300843636455352481e+01 2.625899796375396278e+01 2.985454833812628905e+01 3.271666240112252666e+01 3.383708088432183558e+01 3.281053221515806229e+01 3.217949575019552100e+01 3.150258963360783682e+01 3.403633701844555048e+01 3.859827273985588647e+01 4.541142757295155974e+01 5.142790219368423976e+01 5.565573250500434455e+01 5.849970294556057837e+01 5.572966306881763643e+01 5.205314713012138839e+01 5.131280053129288632e+01 5.430013514636510052e+01 5.872871547564691497e+01 6.391202134968290238e+01 6.721930795756520638e+01 6.309609196067469838e+01 5.628576231059169288e+01 4.939172297050984639e+01 4.527173794842781263e+01 4.263701083418334292e+01 4.493210070835145586e+01 4.956997846156536269e+01 5.272401311500765075e+01 5.227298896008225171e+01 4.643275143387170090e+01 3.901838292760720606e+01 3.444202862014730471e+01 3.889571426719881941e+01 4.545733237861465170e+01 4.661710680717897048e+01 4.297075690274027693e+01 3.926407285904553390e+01 4.419649048754557441e+01 4.618475194294868658e+01 4.182315324334317808e+01 3.994962094956256493e+01 3.715370083515649213e+01 3.924054255876833253e+01 4.303844661126196769e+01 4.777858570071181532e+01 5.204149040930808923e+01 5.631445697255626470e+01 6.163350382225451796e+01 8.478362332007542690e-02
2.990212595082230099e-02 4.822579542449435763e+01 4.422357673566017411e+01 3.996937382439828923e+01 3.605868931098322605e+01 3.165540137698064171e+01 2.586553032197178226e+01 2.172317568694410284e+01 2.400398976103445037e+01 2.804939130380039103e+01 2.902655297968075843e+01 2.540388939838310023e+01 2.422377520708832321e+01 2.845790608530991861e+01 3.408318602869339742e+01 3.540718206924669431e+01 3.004820969036709855e+01 2.434344924894227091e+01 1.980876482520725190e+01 1.581354243729892062e+01 1.751113880357274155e+01 1.990649926404243431e+01 2.121614941565620427e+01 2.501823551854274186e+01 3.024257027600727810e+01 3.579980467495261109e+01 3.731321742238772998e+01 4.018359076376211192e+01 3.914676288402145587e+01 3.607215875010820127e+01 3.055395123561825343e+01 2.785475523434921996e+01 3.238607280924150444e+01 3.168779483884378578e+01 2.613527760536329936e+01 2.158845831622028300e+01 2.239801280110788184e+01 2.277707795793656231e+01 1.957407682160085471e+01 1.750689574736337306e+01 1.497702050272958729e+01 1.840004731657895931e+01 2.033448236949696053e+01 2.045870222896612134e+01 2.406503262018677702e+01 2.660686017877130283e+01 2.823769862100240147e+01 2.458158094105401048e+01 2.035616532311715332e+01 1.780445983679956967e+01 1.926344238987713453e+01 2.164574091883888940e+01 2.506575753014433161e+01 2.883028073396533131e+01 3.393171549091891137e+01 3.918342822809065495e+01 3.940228458824502411e+01 3.627622639529283788e+01 3.804698861786879149e+01 4.341100306360920058e+01 4.806638025417084492e+01 4.946143594809352351e+01 5.103989184616660424e+01 5.442321346583388930e+01 5.064323688436087423e+01 4.573738105506338769e+01 4.541338045393911216e+01 4.895790330981361649e+01 5.469198276492750921e+01 6.191148022675547224e+01 6.668865110088509596e+01 6.362046795234749652e+01 5.932299686380994075e+01 5.482493507792646170e+01 5.035118159131224047e+01 4.486358715636026773e+01 4.123627948165051293e+01 4.302034030380447405e+01 4.696532723131677756e+01 4.681559812822396083e+01 4.561956902408966386e+01 3.914242356923775645e+01 3.454834687931963089e+01 3.742864975093280577e+01 4.145093521394849745e+01 4.072970676901871911e+01 3.837400699731507814e+01 3.585295114364201652e+01 4.098376133656859110e+01 4.291374951637490653e+01 3.943607849229225337e+01 3.694135940149719488e+01 3.925252559427134003e+01 3.866948440740706872e+01 4.263334574097201113e+01 4.770258788220142776e+01 5.056745862740604736e+01 5.305217157955799934e+01 5.883378237876479488e+01 8.392502346042854389e-02
3.676239949994595385e-02 4.575191116868276708e+01 4.039005177672049740e+01 3.894015358524751491e+01 3.972508362873217180e+01 3.512527960082622513e+01 2.867244717271054100e+01 2.332026465157855100e+01 2.043829331149893136e+01 2.281562763064129129e+01 2.446846171345000087e+01 2.091582734780077146e+01 2.191960356935126697e+01 2.489200597035031848e+01 3.087308093478190330e+01 3.293179192829131097e+01 3.028655868950660590e+01 2.389646016311898080e+01 1.840815840252525959e+01 1.682330986027329445e+01 1.502042078457068541e+01 1.720588260115985335e+01 2.201535465168509376e+01 2.833012171545555802e+01 3.306749662028876457e+01 3.456831005328977824e+01 3.200475446339241614e+01 3.586437689645249804e+01 3.659208015484730225e+01 3.151888352055182807e+01 2.623018179668260785e+01 2.423601854796019950e+01 2.936353270253850667e+01 3.171055117024312153e+01 2.825735433339595204e+01 2.239618424907638072e+01 1.792418005066959807e+01 1.800488959371779529e+01 1.512496210447780243e+01 1.500022868273869037e+01 1.723500789268264910e+01 1.564051539313617312e+01 1.610840538725540938e+01 1.877741759960503032e+01 2.021332047605953619e+01 1.996164437845077089e+01 2.147443475148501335e+01 2.075708485430943639e+01 1.826602649687119850e+01 2.102863807766611970e+01 2.413762143955696615e+01 2.585084009832277019e+01 2.973787035852926763e+01 3.169335729186381201e+01 3.780735578343973913e+01 4.394901544920263348e+01 4.511926445171659594e+01 4.371792150400841592e+01 4.503009583608499611e+01 4.732277616031925049e+01 4.765933042020089516e+01 4.469966652234405302e+01 4.806339814484699247e+01 4.761476185028894292e+01 4.424123908269769601e+01 4.165930368063326483e+01 4.454475237857000991e+01 4.990353148746044809e+01 5.728416386344154887e+01 6.370299378158514259e+01 6.451509166882379986e+01 5.949876602606511256e+01 5.794057806605911054e+01 5.910765100618106516e+01 5.597283804388704453e+01 4.994771103716254856e+01 4.307560370624113233e+01 3.950345894043663009e+01 4.137048971006706211e+01 4.228971029964478134e+01 4.581201226197170229e+01 4.215306713954586826e+01 3.727121953613833938e+01 3.364084596220195778e+01 3.682480396657975774e+01 3.685844630952581014e+01 3.401102215830538711e+01 3.381682812051020903e+01 3.770588437982515728e+01 3.860067052024006529e+01 3.641111456399504220e+01 3.962870123785553744e+01 4.359383662145128113e+01 4.245756202967083937e+01 4.091817384527669788e+01 4.412520619633014007e+01 4.617874216956720801e+01 5.091373786042753125e+01 5.726871118551792961e+01 4.306901218162434430e-02
4.104878240991868127e-02 4.469987924715375982e+01 3.843723778965059523e+01 3.430960111918420097e+01 3.483874378921768766e+01 3.651563278144613633e+01 3.410960240381785979e+01 2.857335740516001721e+01 2.288822216922677555e+01 1.914223688907483023e+01 2.030246515482797420e+01 1.902170030955333502e+01 1.840340951544478898e+01 2.322577627768036379e+01 2.778025316443599735e+01 2.706299861651341843e+01 2.460625143132336134e+01 2.070302835853730983e+01 1.752236905705359149e+01 1.523392601680793135e+01 1.831704775640917404e+01 2.150665224881534243e+01 2.310858418873167608e+01 2.799802464734847263e+01 3.303827212214706321e+01 3.154309261650323748e+01 2.711732911197873364e+01 3.201410533926965485e+01 3.682475917548430289e+01 3.432494336747797092e+01 2.755116390001149540e+01 2.258308403671599862e+01 2.444252870802604960e+01 2.643495342087871691e+01 2.648728637981812284e+01 2.238442610642538355e+01 1.782210290906718697e+01 1.543666288111607088e+01 1.803280488614425536e+01 1.970539261275627041e+01 1.958376046947862648e+01 2.037025150353237990e+01 1.966291818438725869e+01 1.591920757511356044e+01 1.515312763313423616e+01 1.565871623533460344e+01 1.629945184718187789e+01 1.672545777830026736e+01 2.061628492075272234e+01 2.350606440829509580e+01 2.903202119961808947e+01 3.284539697957945492e+01 3.639059182706118634e+01 3.827867700949237673e+01 4.192840927506617987e+01 4.709309749441752757e+01 4.650760391609698985e+01 4.857043230088885366e+01 4.892156651379770693e+01 4.564765747667991036e+01 4.243513389306506411e+01 4.080483581735028054e+01 4.317476612760779631e+01 4.111570394126387384e+01 3.931702555949460987e+01 4.261144321808134094e+01 4.912015477878431113e+01 5.471143354295938366e+01 6.084491587764877352e+01 6.699467048840462269e+01 6.416188165934616450e+01 5.786153314968446182e+01 5.321186536478813167e+01 5.670607392007054415e+01 5.813386184562875059e+01 5.380044862716736276e+01 4.718381700551177715e+01 4.134439184854578286e+01 3.785019591653187376e+01 3.951187892453580019e+01 4.256958578895597611e+01 4.071997988257228940e+01 3.641051068030598969e+01 3.223493600112515622e+01 3.262205294781534093e+01 3.341052294427488079e+01 3.644864163524849232e+01 3.746522962932832002e+01 3.480125665466945861e+01 3.506927298882256139e+01 3.792250602152854100e+01 4.154854237415632667e+01 4.746353564431753114e+01 4.658270398996710782e+01 4.438335585326753119e+01 4.212135886762974479e+01 4.673152054489997909e+01 5.376021789520420668e+01 5.952259685165155645e+01 7.567771270761877722e-02
3.260608231146373825e-02 4.335872341885879422e+01 3.836658810732145497e+01 3.326568136047212931e+01 2.966184682350481339e+01 3.354520931069475864e+01 3.662350073828271491e+01 3.224722525278559715e+01 2.574613969913545475e+01 2.132308444991282670e+01 1.696014226416733095e+01 1.549190048165340983e+01 1.777599065060912054e+01 2.170628548363142585e+01 2.206381114978248092e+01 2.322013118185714120e+01 1.918242724355367912e+01 1.738646457557520009e+01 1.501302795810067892e+01 1.786032469452331384e+01 2.115678481168378511e+01 2.647499735319964387e+01 2.846420049103515382e+01 3.037356852940619234e+01 3.075253630180314701e+01 2.808556194352179602e+01 2.303168480695530107e+01 2.726554576211498571e+01 3.380363571808153722e+01 3.455267513371957477e+01 2.824893925889164237e+01 2.342535742104757546e+01 1.977110756819596560e+01 2.278491729955409539e+01 2.107046013961136310e+01 1.821092740471688387e+01 1.524799905519580534e+01 1.782636988877796469e+01 2.089302048236910281e+01 2.562705151624973965e+01 2.536207281282306170e+01 2.635005713932643090e+01 2.480805496907692032e+01 1.985870189936157715e+01 1.828723032287491890e+01 2.105213791101477128e+01 2.137569244441276339e+01 1.955818736478491360e+01 2.394490537238776540e+01 2.910911331131645241e+01 3.363739241851868655e+01 3.810202880206443865e+01 4.043847081666267229e+01 4.334859306838777115e+01 4.292622273090719887e+01 4.156510820428108133e+01 4.197353038057285346e+01 4.676486905769279900e+01 4.662423629662315960e+01 4.062437277808520975e+01 3.663869353096544046e+01 3.917943322904783088e+01 3.788619571220100113e+01 3.581151826300988716e+01 3.953103993713344266e+01 4.492704803104174971e+01 5.000909120286950582e+01 5.508509570010572531e+01 6.079934025046553359e+01 6.457105674255636529e+01 5.955134953431401357e+01 5.478283070936218024e+01 4.990721395850172826e+01 5.144788850052452744e+01 5.336859324109103397e+01 5.383467487186692324e+01 4.785933440330968835e+01 4.235092462038145555e+01 3.951163207483791240e+01 3.607364659077403246e+01 3.737342710143474989e+01 3.615989475380435891e+01 3.349479650055026525e+01 3.579555587054807120e+01 3.759750467687219810e+01 3.738925107315818508e+01 3.810412425870327979e+01 4.127976840150687821e+01 3.906239800123447026e+01 3.874007014700516294e+01 3.712200711924310070e+01 4.175938463306113135e+01 4.892685339226063945e+01 5.204564884352554088e+01 4.805365847223180964e+01 4.296005725701964195e+01 4.606170099392691952e+01 5.212521773109207857e+01 5.885172406961743974e+01 6.162151314911253758e-02
2.639830978664934463e-02 4.078503317586660870e+01 3.494474022050788165e+01 2.981071324804187839e+01 2.632080966319740867e+01 2.802617718274397163e+01 3.278922033811897307e+01 3.413281666927347402e+01 2.990814919577082520e+01 2.513975625875089293e+01 2.119890616494756941e+01 1.765322305716848206e+01 1.430086032736670276e+01 1.782206322373394514e+01 1.672320098258371246e+01 1.977490215357985548e+01 1.713222997033517103e+01 1.477388334553412363e+01 1.740646021402865884e+01 2.063099992461462051e+01 2.628409466395273597e+01 3.043421168589825498e+01 3.183645867696460385e+01 2.748228040294099017e+01 2.467362236831477063e+01 2.383770494106413196e+01 1.962329321574277685e+01 2.369062314711382555e+01 3.059688535354184324e+01 3.579026051977240286e+01 2.967916013042309942e+01 2.266303725337601804e+01 1.798777165698680847e+01 1.932971120436570445e+01 1.821478950182786249e+01 1.431721449575010752e+01 1.739921292768055139e+01 2.017043354956096124e+01 2.579595564322643497e+01 3.068263287185280674e+01 3.181644344285460591e+01 3.319725236884812603e+01 3.088208233374526301e+01 2.706915127029620649e+01 2.433752392742468373e+01 2.795987673377788951e+01 2.824631626673489393e+01 2.523473052850771481e+01 2.955894474472263056e+01 3.385610551152047520e+01 3.536636745827963324e+01 3.358804720625133911e+01 3.557542401497124729e+01 3.872579898707321888e+01 3.709610268261118904e+01 3.633067131877727718e+01 4.140188963166301761e+01 4.743668690014963829e+01 4.564123720844533949e+01 3.897165058171209751e+01 3.373527237222893405e+01 3.460792093974860251e+01 3.323380862557239368e+01 3.419637801350619100e+01 3.746671662606386377e+01 4.134040071780584213e+01 4.577481268558424432e+01 5.124436960268701569e+01 5.780456712089924309e+01 6.310740491676364883e+01 5.851071094126910310e+01 5.353746181762535628e+01 5.018794690074454934e+01 4.676319102444777087e+01 5.069765052374277303e+01 5.490949423060725110e+01 5.166771878769512227e+01 4.748809322094341212e+01 4.308405982264326894e+01 3.790721421680019176e+01 3.314464409715108673e+01 3.153009107124000110e+01 3.500980090381600007e+01 3.782868523439022113e+01 4.283192310936433955e+01 4.450959700741324099e+01 4.352496681106673293e+01 4.454781948669945990e+01 4.509854412548018843e+01 4.280166526166213714e+01 3.930239866173891983e+01 4.347450358391864711e+01 4.977135784863030921e+01 5.407674324521183706e+01 4.969374277894491598e+01 4.560784868129966441e+01 4.907512029803879017e+01 5.338748068434345129e+01 5.992889324632437820e+01 5.199293444039567585e-02
4.785076139670936535e-02 4.303729911585371326e+01 3.865140413541088549e+01 3.379620805648114867e+01 2.788394151344913041e+01 2.407843908623575757e+01 2.899518670292163591e+01 3.124756013652351427e+01 2.632330669623384978e+01 2.441786282607973391e+01 2.284370752083906808e+01 1.751045387744591508e+01 1.316129174146668390e+01 1.501958504102918290e+01 1.323173230756368035e+01 1.572725942676914812e+01 1.436744750475606658e+01 1.756994308147902117e+01 1.996896995435204047e+01 2.521005861210664989e+01 2.953115288639379798e+01 2.999218869999466008e+01 2.824558888871428053e+01 2.525054356850526815e+01 2.005978127573118996e+01 1.888295065496321712e+01 1.753005002380617583e+01 2.218323244588542664e+01 2.679812976290398296e+01 3.089292969017076018e+01 3.070187297832363882e+01 2.461595282563163067e+01 2.041754645333119100e+01 1.634941151479833366e+01 1.627394205152986828e+01 1.396444900563221125e+01 1.925259948621789619e+01 2.469961640626743815e+01 2.948349013642634731e+01 3.298246033296014446e+01 3.154726046618274538e+01 3.266529904707972776e+01 3.475861296784711385e+01 3.319074749295170790e+01 3.069245245314144555e+01 3.258534433775254513e+01 3.290288196554411826e+01 3.152058507533444853e+01 3.340174150232969197e+01 3.276437261551019731e+01 2.994836900870987861e+01 2.891288852735192805e+01 3.261077108216802856e+01 3.297575374634912038e+01 3.208396204131292251e+01 3.555338646102164546e+01 4.177098470196316526e+01 4.321179522419093644e+01 3.979243866635511750e+01 3.561195580999252286e+01 3.278019705701127862e+01 3.180774332727556697e+01 3.554117697880430882e+01 3.891254027840662388e+01 4.195371759789272659e+01 4.508098232661748028e+01 4.828537356573394135e+01 5.242431175032221091e+01 5.545699921513190844e+01 5.975810670149254378e+01 6.110936627962789913e+01 5.686179333972638261e+01 5.007512415741658884e+01 4.472831583436983749e+01 4.604456863647200748e+01 5.048144135839266511e+01 5.199639367580079607e+01 4.912615275433400797e+01 4.310724528772863806e+01 3.893078475951693918e+01 3.453824325308065823e+01 3.148483113448204307e+01 3.512249144354429120e+01 4.087049969805407557e+01 4.593022590970331009e+01 5.101026852949821944e+01 5.057291824012494885e+01 5.017230904081958442e+01 4.919886505317115422e+01 4.487391168871194935e+01 4.325872812666823819e+01 4.274741883674280984e+01 4.619860347292654978e+01 5.142682330497241594e+01 4.871736815013850475e+01 4.966939668766016780e+01 5.000543848253936119e+01 5.550045620101627719e+01 6.258467802823722792e+01 7.825485392041309218e-02
5.915147824110337377e-02 4.262293877585655366e+01 3.846342810810900659e+01 3.347377127621377468e+01 2.623140939965315255e+01 2.166809730255650024e+01 2.646575587490269754e+01 2.967501394449195118e+01 2.446553394275444049e+01 2.010332026932103844e+01 1.979520386701516799e+01 1.871233361607884049e+01 1.498898678363170234e+01 1.311356966531213786e+01 1.541878207425067515e+01 1.388645789702582434e+01 1.718716529116220926e+01 2.212523141728157583e+01 2.566778946100777503e+01 2.857448471288327241e+01 2.869551973729085859e+01 2.415251950353683696e+01 2.186195006161278798e+01 2.358487705681283231e+01 1.907114834722901264e+01 1.458064988748144053e+01 1.752320705453077210e+01 1.925065620542640943e+01 2.144107082696014999e+01 2.678489691025052011e+01 2.942231028772833668e+01 2.611027591450654128e+01 2.362279678586246590e+01 1.876442593221390709e+01 1.463215817694782217e+01 1.627857579203125482e+01 2.076581915556440805e+01 2.471745634270493497e+01 2.853522825248926509e+01 2.865840890599842083e+01 2.538371154860075762e+01 2.739949658751170602e+01 3.290085235098933225e+01 3.392673030896632014e+01 3.105510891932287976e+01 3.078232951046014065e+01 3.148985608281144621e+01 3.364773279875134904e+01 3.330214578323202801e+01 2.887609514387611753e+01 2.424197026886741924e+01 2.657769708352483917e+01 2.879527443035964041e+01 2.883754400427880782e+01 3.334794960215343451e+01 3.959810085722456563e+01 4.412175998994866433e+01 4.046231871822686088e+01 3.421853637734479747e+01 3.161284653596520400e+01 3.000954567902296333e+01 3.384330102723057365e+01 3.757882651938431451e+01 3.797322296211768133e+01 3.969693851982940203e+01 4.166473169313138669e+01 4.316784013752711502e+01 4.745837949796968758e+01 5.000922927372229765e+01 5.630267380460946924e+01 6.021433471120096215e+01 5.558426184010399140e+01 5.010865633411529529e+01 4.665518190507253138e+01 4.287378513596409846e+01 4.469641048359694935e+01 4.616069689241543017e+01 4.515380842882033363e+01 4.089919369450522879e+01 3.528578946188383014e+01 3.210355818219445467e+01 3.402280995114999484e+01 3.830853664874611297e+01 4.228077545039636220e+01 4.832950573378904835e+01 5.036472208971589737e+01 5.334487739431582298e+01 5.582505598506580213e+01 5.278942827988304742e+01 5.006395017307011130e+01 4.716843749741656211e+01 4.739642612475766015e+01 4.699681005836216485e+01 5.176248197498313885e+01 5.106580537381898921e+01 5.411819345789025704e+01 5.342976848629062658e+01 5.697695637750634745e+01 6.321237410769735021e+01 2.777010749735432313e-02
9.009667908228130573e-02 3.926841567999872495e+01 3.374579845956864688e+01 3.094638638588611101e+01 2.513224621959582095e+01 2.046466269298463203e+01 2.295653422778324781e+01 2.614447268663257873e+01 2.478748972849518850e+01 1.930207533677245380e+01 1.525430082312946034e+01 1.495217358450398493e+01 1.295965190235336095e+01 1.646910994299511088e+01 1.991335399177771137e+01 1.787102844047557682e+01 1.947007046172043232e+01 2.514599278831076035e+01 3.015775406906211842e+01 2.831225099321435934e+01 2.542562483222571856e+01 1.939200863927026575e+01 1.621998406922176272e+01 2.002004691482116883e+01 1.712286567438739837e+01 1.188138186176069944e+01 1.418230255339360824e+01 1.405038318752182391e+01 1.885537094489754395e+01 2.251954006042396728e+01 2.413220455919141116e+01 2.137481065246559808e+01 2.395676136575310622e+01 2.222081152549332828e+01 1.781700741919896558e+01 1.430185484531523343e+01 1.688648188104666659e+01 1.940225153908237488e+01 2.361035445085544282e+01 2.223156527539654448e+01 2.109846119766173445e+01 2.560229022685872380e+01 3.169477545590400780e+01 3.099855950605631705e+01 2.576216963428838369e+01 2.385071761320357098e+01 2.563325425507437672e+01 2.981140758059330054e+01 2.809743083022164001e+01 2.328672758235064322e+01 2.067458739290946568e+01 2.250707290274181105e+01 2.494163006703899654e+01 2.987039067658643177e+01 3.506682956798682937e+01 4.113383735041406908e+01 4.600000843015971697e+01 4.012803183974472176e+01 3.257274448953258172e+01 2.770782472875767866e+01 3.126667195782115272e+01 3.540063838436242349e+01 3.473636187423743138e+01 3.321223757048388592e+01 3.468692257164397574e+01 3.664138453498146930e+01 3.939890013781032962e+01 4.313804219585214383e+01 4.848654394919500987e+01 5.523345097205138643e+01 5.837606798340042502e+01 5.806742060977572351e+01 5.479862368324894817e+01 5.001572946491915417e+01 4.418801971506398729e+01 3.993046778558513665e+01 4.189629721847806820e+01 3.900304230629593150e+01 3.764889365884387473e+01 3.564552088800387253e+01 3.410164957464539270e+01 3.119460922621070154e+01 3.552377593542752265e+01 3.938612269945424771e+01 4.235456511853933392e+01 4.417973857389560521e+01 4.970013991314479540e+01 5.436538248133499707e+01 5.742680760702837972e+01 5.508687444959928570e+01 5.319385785303216352e+01 5.429827366283699774e+01 5.168878611578648474e+01 5.583145512753187489e+01 5.669913442564861583e+01 5.610541689410598565e+01 5.863847259395176081e+01 6.179104584831246427e+01 6.700820532609499480e+01 2.086981919055498277e-02
4.715438695229591526e-02 3.825026660635627707e+01 3.203427402320163964e+01 2.721492137533861566e+01 2.348134410477194933e+01 2.158567835626940123e+01 1.831228851264985735e+01 2.052359476812580397e+01 2.054747442101711385e+01 2.036174858071834848e+01 1.469912151925312571e+01 1.155100638791581780e+01 1.518604158518203384e+01 1.967229530843656349e+01 2.491329863044881421e+01 2.449075209859979196e+01 2.546178894755295730e+01 2.777858371348151678e+01 2.698226616905809294e+01 2.301377284296228609e+01 2.086559563812133078e+01 1.725395459282326627e+01 1.280598025215509317e+01 1.656073177297562182e+01 1.454227648496352998e+01 1.040420949386663807e+01 1.047763325324024919e+01 1.100827111446271367e+01 1.463960780077506740e+01 1.547702155968960369e+01 1.669959792214773486e+01 1.677048716812689833e+01 2.189806886897885363e+01 2.480469972996302985e+01 2.041516561414952946e+01 1.641141177979881505e+01 1.291019210661324124e+01 1.601374707427653021e+01 1.749399859762997878e+01 1.686687304945400001e+01 1.994143435396038910e+01 2.200003395363335912e+01 2.696319262344503542e+01 2.801703083489282164e+01 2.327182490724332453e+01 1.915551958410086542e+01 2.304485669099779699e+01 2.527947177842466786e+01 2.268629174602657628e+01 2.013428115284788333e+01 2.295789209458219204e+01 2.720635178908120011e+01 2.867178920894490801e+01 3.255117934546260017e+01 3.737024451828173000e+01 3.779692569887146902e+01 4.109696646095795813e+01 3.748771794793901080e+01 2.996917228106187281e+01 2.536611457499702738e+01 2.947344218664633786e+01 3.166123205671969743e+01 3.103619685056043664e+01 3.466077295077541010e+01 3.883272106035496307e+01 4.086198618965255491e+01 4.485944076142672543e+01 4.745600340988212906e+01 5.200666167961749409e+01 5.492226680554399820e+01 5.323560450937305433e+01 5.615141317749165495e+01 5.587628050230262033e+01 4.931783644243920151e+01 4.342233458464274065e+01 3.827165894311450955e+01 3.824779165921948731e+01 3.473030219612756753e+01 3.304339475010628746e+01 3.195948074646339876e+01 3.295424105179666441e+01 3.005376114710399804e+01 3.203795133106376625e+01 3.471894982598594481e+01 3.732215405273102959e+01 4.006008093511638180e+01 4.529043406453001808e+01 5.134012957368192076e+01 5.755840251259021301e+01 6.023866131343994113e+01 5.896149145272426040e+01 5.862650018276694652e+01 5.664793221493280839e+01 6.000511069014341814e+01 6.300615813884751049e+01 6.171138454097499704e+01 6.121073751582393641e+01 6.574896881676347959e+01 7.185033284032544998e+01 4.302771832424033549e-02
3.096764780222893785e-03 4.074521241164380569e+01 3.583067396934038129e+01 3.078724244672751453e+01 2.622041078583299267e+01 2.214315497436971469e+01 1.735119299894263278e+01 1.589811660004493810e+01 1.531520054364643713e+01 1.691261599003007987e+01 1.450155337296695457e+01 1.106700727813037410e+01 1.420660188756009212e+01 1.734244950330223389e+01 2.316368146308676046e+01 2.611978145236721005e+01 2.907752216404043821e+01 2.759224404794488095e+01 2.210207983607260829e+01 1.904685890832076822e+01 1.548612249538929575e+01 1.390664835331024030e+01 1.082649860745769210e+01 1.329872256227258376e+01 1.167581899906986997e+01 1.417817047035702771e+01 1.579417999069153922e+01 1.481709616904338134e+01 1.103935238424394250e+01 1.094319994504701299e+01 1.203354854062679813e+01 1.543103054071211488e+01 1.975067808751094134e+01 2.038939721776231551e+01 1.650715615500990197e+01 1.525921232128777838e+01 1.170827538175701044e+01 1.214837150719897352e+01 1.309708320736469034e+01 1.569313056812900342e+01 1.702778028950077882e+01 1.691481506416952385e+01 2.174852833214283621e+01 2.232398363320065471e+01 1.774316434686253885e+01 1.513355327966046637e+01 1.837139516832996122e+01 1.963296746708864049e+01 1.852160821899033039e+01 2.232582285879126260e+01 2.759963792075486211e+01 3.288079462726379631e+01 3.526478006043537761e+01 3.769341841599540288e+01 3.667159615381541471e+01 3.302623438659821886e+01 3.693289940017524486e+01 3.633190412880036746e+01 2.944678634266839623e+01 2.376447970296879575e+01 2.525416648810601572e+01 2.793606463496600512e+01 3.199454056021875914e+01 3.594914196930508155e+01 4.222176056844933356e+01 4.748999855312085572e+01 5.162270455474874353e+01 5.335520190563445908e+01 5.421839698594323664e+01 5.205423756907379129e+01 4.786984546846634458e+01 5.231343509240743117e+01 5.414022573225529555e+01 4.791114631537213597e+01 4.289164365674648849e+01 4.072687716601865304e+01 3.757933221678644031e+01 3.886064528998544887e+01 3.783298580633252328e+01 3.457380206091828967e+01 3.124098714367100982e+01 3.286150122678566277e+01 3.625345220597160534e+01 3.951977186250478269e+01 4.224073741512008695e+01 4.409366639277688193e+01 4.968227001520069308e+01 5.420804462081853359e+01 5.759171929577869520e+01 5.637910878810031079e+01 5.566223910711383382e+01 5.359408744853028850e+01 5.358158216254321360e+01 5.856433113692577308e+01 6.506290717607072338e+01 6.732969600237184693e+01 6.629157295010831774e+01 6.761986612398119689e+01 7.281497500443030901e+01 2.427392960625618379e-02
7.494297770287219884e-02 3.971049293649411993e+01 3.482964713241293708e+01 2.863900258100833440e+01 2.348490396501678390e+01 2.125617029672360658e+01 2.196692594435763013e+01 2.013424287093983267e+01 1.705172911173557182e+01 1.369872885127790596e+01 1.219067641135566404e+01 1.284244461053897979e+01 1.088536701630976467e+01 1.554798367748289323e+01 1.956198433205786458e+01 2.192742635256081485e+01 2.705014075143904506e+01 2.636825513924952702e+01 1.949755243194223198e+01 1.439591644156582007e+01 1.308075131683071035e+01 1.115935768036723630e+01 1.323289103994892280e+01 1.138453727483635092e+01 1.396002690667869039e+01 1.681389772167033314e+01 2.141395669822930614e+01 1.893894546981968929e+01 1.364609659698971988e+01 1.567095821998664817e+01 1.549358295606970515e+01 1.298232353688236174e+01 1.563126029686216256e+01 1.571253266156683281e+01 1.251851337477648585e+01 1.268184844760291341e+01 1.562489106095498492e+01 1.736124718014262669e+01 1.667933176504939041e+01 1.287896361693722724e+01 1.272129962716387652e+01 1.328702058528455687e+01 1.712856059148085919e+01 1.738401686686933090e+01 1.394749269872157527e+01 1.301679061563954498e+01 1.372929104627945307e+01 1.463656625660509292e+01 1.924280151129372385e+01 2.344099611819951079e+01 2.785530650275170572e+01 3.188138923753341913e+01 3.700872386162500050e+01 3.780578515312353716e+01 3.365226892626331789e+01 2.853574418541251134e+01 3.248383806295752407e+01 3.138983857496693375e+01 2.631637230970787300e+01 2.400092712946106133e+01 2.807379557728654262e+01 3.200089330907139384e+01 3.436485397052344126e+01 3.981681374148801211e+01 4.513786740939339381e+01 5.176564688900172939e+01 5.592399879006037366e+01 5.299798249285932883e+01 4.920018987384948872e+01 4.767841898076412122e+01 4.344547840347754430e+01 4.874407250746530451e+01 5.435662465143539634e+01 4.950127094306899522e+01 4.692707561252166926e+01 4.489423155115910902e+01 4.273277133267145445e+01 4.442397288242680276e+01 4.259524431636682351e+01 3.694396141821732726e+01 3.337971754021894810e+01 3.021795791395086894e+01 3.518402265434517773e+01 4.155820834063752045e+01 4.687372775924961132e+01 4.994016216436956768e+01 5.344717683436902433e+01 5.456447617253380145e+01 5.240375243937034355e+01 4.935139821523527104e+01 4.848559995473763706e+01 4.794375568404310428e+01 5.236203170480202829e+01 5.941994418804240041e+01 6.637199051003486261e+01 6.618241963431398744e+01 6.839178479996814985e+01 7.135194605531498269e+01 7.514527159617843211e+01 1.740335600928011317e-02
5.538177204173176660e-02 3.714566419673175091e+01 3.119192338136517861e+01 2.668383524377373561e+01 2.758855714731730302e+01 2.666166514483923322e+01 2.673352049371959538e+01 2.173775931000161421e+01 1.770717235397624734e+01 1.765457274688647971e+01 1.562981061103929825e+01 1.230899008530785466e+01 1.021792439554401177e+01 1.349858223306777738e+01 1.514961309379996024e+01 2.017757372175936936e+01 2.625522701170051221e+01 2.603538367615090721e+01 1.940061260267081167e+01 1.298204350781240457e+01 9.975961365538601910e+00 1.365653356688337183e+01 1.700696729131773566e+01 1.494780504102344487e+01 1.560058738334318562e+01 2.025377812817798429e+01 2.543066511087374693e+01 2.279082324185469588e+01 1.773943957568264551e+01 2.099792751062757290e+01 1.954268920311157487e+01 1.533044160328364924e+01 1.206372911016512361e+01 1.164016844184498112e+01 1.539348984914828655e+01 1.722611332846035737e+01 1.855754335531131005e+01 2.261368112358383797e+01 2.138579102876258276e+01 1.642438676838222378e+01 1.736622237869553231e+01 1.640790290614030411e+01 1.373341860753241406e+01 1.332500537889452374e+01 1.704218770268871097e+01 1.885922243414582056e+01 1.818963157784466134e+01 1.484496487157555933e+01 1.761117112708652499e+01 1.911466189839691765e+01 2.379932873330970011e+01 2.944340027585602115e+01 3.170835972231046895e+01 3.151118145797723002e+01 2.966863529426732882e+01 2.477754651113427187e+01 2.839681687818783473e+01 2.645605613510590359e+01 2.391432501974220415e+01 2.721510116013994462e+01 3.036079183936529802e+01 3.612840167068567609e+01 4.008401001936640284e+01 4.409773078974124871e+01 4.949690050368531757e+01 5.424535295855446293e+01 5.480043141349827351e+01 4.907441854112170176e+01 4.431860794273648452e+01 4.341833531384652645e+01 3.982672782472884876e+01 4.483604718754549623e+01 4.871295302297085072e+01 4.897552135325359046e+01 4.617348511502576258e+01 4.509187673058656287e+01 4.526085002248133549e+01 4.803818700200237402e+01 4.641012038907006598e+01 4.055784530627270357e+01 3.344494694786230582e+01 2.875777777011218816e+01 3.241018858565220029e+01 3.814185489268141538e+01 4.474591584804520750e+01 5.035888550992023482e+01 5.235144132444318643e+01 4.961312993581675101e+01 4.596377887212213409e+01 4.423783856054723174e+01 4.350993676042034508e+01 4.730495979749495916e+01 5.356414942388769163e+01 5.837638917432543195e+01 6.185414391627141129e+01 5.989454344232598260e+01 6.339852962651163182e+01 6.760018401393668341e+01 7.188831233262625631e+01 1.773745726026544275e-02
8.123091546170205235e-02 3.957385929542379444e+01 3.421939074681170467e+01 2.976070397346172314e+01 3.289677599123996998e+01 3.040478313535167842e+01 2.503174594139282405e+01 2.156053165743148270e+01 2.233200909755879593e+01 2.167748620813335592e+01 1.710433250359173840e+01 1.682297121052076960e+01 1.376397361452177925e+01 1.126298981711703284e+01 1.357638172937067189e+01 1.683380187314185150e+01 2.134744194836399700e+01 2.408242125505814002e+01 2.065537227966015621e+01 1.421392916652045812e+01 1.021429051846649116e+01 1.358584847259842832e+01 1.798574815982958341e+01 2.050952997217114415e+01 2.098742336274383291e+01 2.247835321399097097e+01 2.736838528625334277e+01 2.679836424658388339e+01 2.270356859502410174e+01 2.429633426718702438e+01 1.998544678655198936e+01 1.566521388623676359e+01 1.519231591338653864e+01 1.317438168845815305e+01 1.717034937037206532e+01 2.172741922394321890e+01 2.376349589644076588e+01 2.692863413947099005e+01 2.610206081288739099e+01 2.185142166044749956e+01 2.209210717456954143e+01 1.858944200722663709e+01 1.738135338386160100e+01 1.472011200255051122e+01 1.917989140322633901e+01 2.498841423522780758e+01 2.331408446046521021e+01 1.856652628155761064e+01 1.488746577045784392e+01 1.826864836308262952e+01 2.426915405818248672e+01 2.710707205706225054e+01 2.509345518484752446e+01 2.597613189670643052e+01 2.598288880746819629e+01 2.142214561139964601e+01 2.365404313209308285e+01 2.194947382340118480e+01 2.595110751690577189e+01 3.101335508405517061e+01 3.565214217025068422e+01 4.039620465415244865e+01 4.533425823100934338e+01 4.440554582468369915e+01 4.622602333394469554e+01 5.236959197415378497e+01 5.577584141440332388e+01 5.068130211583391542e+01 4.417289210196805982e+01 3.990465008070337660e+01 3.724917973375630709e+01 3.971581428578728890e+01 4.215091295609219202e+01 4.451597480100836890e+01 4.048846878338928690e+01 3.867660159833405231e+01 4.061216244550308829e+01 4.570845174583934067e+01 4.653028609748295708e+01 4.046174626936583252e+01 3.345279366326517589e+01 2.888816489057599313e+01 3.351869164446064531e+01 3.781162651654945250e+01 4.128044107886086067e+01 4.691207127983417990e+01 4.854642033641353294e+01 4.409412776127588529e+01 4.177908715566222497e+01 4.028089718460985580e+01 4.362985871029034968e+01 4.880797481607461208e+01 5.116656068536899937e+01 5.244460002704595070e+01 5.540632668473323008e+01 5.494072581769952279e+01 5.815626672893490934e+01 6.275365593548941234e+01 6.875025056032788484e+01 4.533637130032299595e-02
1.341851910302127538e-03 4.142565642538163218e+01 3.632937598104610544e+01 3.480888981568584484e+01 3.726127225754483163e+01 3.311755796429410736e+01 2.802508794245247259e+01 2.646103894761866115e+01 2.851035110512470183e+01 2.535654762748244195e+01 2.026076340703433587e+01 1.992826132602895939e+01 1.524718036280840749e+01 1.390153983718003161e+01 1.104099945967726626e+01 1.339453095952946882e+01 1.594763176236558522e+01 2.047117227229916026e+01 1.968615277501005778e+01 1.704903119192396588e+01 1.330370015750360224e+01 1.028970876701235504e+01 1.512244099696303579e+01 2.084616911257505834e+01 2.485389433845440266e+01 2.753439633339799997e+01 3.099236578507912299e+01 3.167968692918611140e+01 2.835240266580099444e+01 2.455235307216562646e+01 1.936883441189688426e+01 1.990818123894074887e+01 1.878891559566388025e+01 1.769084706828159881e+01 1.605161205586250617e+01 1.980638669081166370e+01 2.364081627677038000e+01 2.788797347062871168e+01 3.044465463868779764e+01 2.837076243178198709e+01 2.570496305361849565e+01 2.377958910787755542e+01 2.136230275361567621e+01 1.753644493537233018e+01 2.174528236298974448e+01 2.780166774654439621e+01 2.689781988049604067e+01 2.004132622018904186e+01 1.521107261256146970e+01 1.787620371109785822e+01 2.023106567137222100e+01 2.091804194935407679e+01 1.958413060182625998e+01 2.349555201877690536e+01 2.273042756405834552e+01 1.942776722665854194e+01 2.003624365655928941e+01 2.120500467116962540e+01 2.600146801982233313e+01 3.077260946244518891e+01 3.734669734968552746e+01 4.145985877531283847e+01 4.050320159839052536e+01 3.995939209078542831e+01 4.452664009096574205e+01 5.087264221697774502e+01 5.258591277937086517e+01 5.265113957651976762e+01 4.893623430006435626e+01 4.465839809195536958e+01 4.005119269864357534e+01 3.606390817924376790e+01 3.755070538374705791e+01 4.023933735401222123e+01 3.829520060422251504e+01 3.433550998560601641e+01 3.879781957626158118e+01 4.255924278204374644e+01 4.021099350393831173e+01 3.663708884997657123e+01 3.389316494194353169e+01 2.940373211983769863e+01 3.226491895377211705e+01 3.416694076884240872e+01 3.895582401655876481e+01 4.281941884371028095e+01 4.554172201232234585e+01 4.226565594587740549e+01 3.782029323293301104e+01 4.075759858721776396e+01 4.192641079967980033e+01 4.575324150057345207e+01 4.643465860885297047e+01 4.845313011336277498e+01 5.154646996580333962e+01 5.632137896976210101e+01 6.191063568497678204e+01 6.556848384180618439e+01 7.127514728928296961e+01 2.776309839987397415e-02
2.541032332596551008e-02 4.494658393364856153e+01 4.180845662602546042e+01 4.133551515040883828e+01 4.213595683964077665e+01 3.731035841353750016e+01 3.384424297642600266e+01 3.298482921268725931e+01 3.245575916745396228e+01 2.762990938214932157e+01 2.521699731899850860e+01 2.445579550470127828e+01 1.980039721779900219e+01 1.803136439659232693e+01 1.339642424295346324e+01 9.924029783963295159e+00 1.419609760288770062e+01 1.678915039822776833e+01 1.395474568844343288e+01 1.370314188567102498e+01 1.249417580904149894e+01 9.326198296218976225e+00 1.215417298196178564e+01 1.701061453883471586e+01 2.273730914869438280e+01 2.819489985180187119e+01 3.128589758446134184e+01 3.405335941667711808e+01 3.176914630305630283e+01 2.597931714353411081e+01 2.215147332377858191e+01 2.586184027735285440e+01 2.452330671951835583e+01 2.275119196549545464e+01 1.895375858538090696e+01 1.748756969408920980e+01 1.999542446419010133e+01 2.540860689697078456e+01 3.151595054315258793e+01 3.426213008146510219e+01 3.163683710806959937e+01 2.738316010944091516e+01 2.252910546125051638e+01 2.169182190127368415e+01 2.699649049639402421e+01 3.079880825631646601e+01 2.642071912172361081e+01 2.041364229673227726e+01 1.799921550793226288e+01 1.421171939970000864e+01 1.501356244906709492e+01 1.595008481653767518e+01 1.669410712361280957e+01 2.017128185081529779e+01 1.964478448623529516e+01 2.300403360891064253e+01 2.535908999222578331e+01 2.619597995384607358e+01 2.515119958937928146e+01 2.906772786674948961e+01 3.453320824756223573e+01 3.627661144628224577e+01 3.590060508736365819e+01 3.948600556941869399e+01 4.576460145047335715e+01 4.862675156745192595e+01 4.667740419664470153e+01 4.979430163822044619e+01 5.100871301697661409e+01 4.753145813856612989e+01 4.353395073175709484e+01 3.794320844912268598e+01 3.366971056033500531e+01 3.497667638039936833e+01 3.510301962520340169e+01 3.118221415481754377e+01 3.615565330924036402e+01 3.850134329790622445e+01 3.403351215490626913e+01 3.183013753032730619e+01 3.435431090692271994e+01 3.153451195470417545e+01 2.989777889447089620e+01 3.340492894130375134e+01 3.551628633982758743e+01 3.727958492772255283e+01 4.147345985391100243e+01 4.030561000979385256e+01 3.609455115424380267e+01 4.074948584583695066e+01 4.462678496284438978e+01 4.485761776830864278e+01 4.842897005577049185e+01 5.320735477803997071e+01 5.560101229949800938e+01 5.792628844401161103e+01 6.394371730763661787e+01 6.888879143040176700e+01 7.434314005762237798e+01 6.750208996811837836e-02
7.366858460645148154e-02 4.533666963477135425e+01 4.226575637029002053e+01 4.184617660408954265e+01 3.804652876934871131e+01 3.416868494833181558e+01 3.287994701126272190e+01 3.481469077218713437e+01 3.543756891988064694e+01 3.293629378500661176e+01 3.144337958487627560e+01 2.971214518810098326e+01 2.563451868952040513e+01 2.083637447383428665e+01 1.347510369767067040e+01 8.738056388946130681e+00 1.303788892716456083e+01 1.280000260654424338e+01 9.475800159584077065e+00 9.004414190736817147e+00 9.307249379949709578e+00 1.208893529956005786e+01 1.506473862047902301e+01 1.945415451896413117e+01 2.407417334235483608e+01 2.513839906295533311e+01 2.681993094790961862e+01 3.196451686727027663e+01 3.429173712332573842e+01 3.128117365670083316e+01 2.725967638506261181e+01 3.088243884585570953e+01 3.011364965775950253e+01 2.411644859113193107e+01 1.919332606655288131e+01 2.149444748383252701e+01 2.397458335121915596e+01 2.461700266710020202e+01 2.985120246157213941e+01 3.593327632231437008e+01 3.472176973440143399e+01 2.954080698330066213e+01 2.724419547128735530e+01 2.775309562384524753e+01 3.177367406348660239e+01 3.281753667788656514e+01 2.736272443895110129e+01 2.401695172872732087e+01 1.973109588319657348e+01 1.472852780303310283e+01 1.855417199906584358e+01 2.091583947066641258e+01 2.106606985805573373e+01 1.898424072474434254e+01 2.148073589028283692e+01 2.608710573549234013e+01 3.037639003322163234e+01 3.177516598351002131e+01 2.938751741148235652e+01 2.722939008120656368e+01 3.056084534735130021e+01 3.218221644637952750e+01 3.715211964880551676e+01 4.355228552073906201e+01 4.799088556703792108e+01 4.550263634624244702e+01 4.099441312470595022e+01 4.469274077514583610e+01 4.641540420838303760e+01 4.310024228687143477e+01 4.455803273863286051e+01 4.041671497746436614e+01 3.503090927139281519e+01 3.094599258616360515e+01 3.105161680886297759e+01 2.835063711145690846e+01 3.343704379992156106e+01 3.536067845025109335e+01 3.174268488376500841e+01 2.872337504301032851e+01 3.102916382763765668e+01 2.921677953661760796e+01 3.129818826591226610e+01 3.282893334092811699e+01 3.184516113492950495e+01 3.469968871142636857e+01 3.703022285354791165e+01 3.714668866339589215e+01 3.522576755570395335e+01 3.973709117481780595e+01 4.599255949194964899e+01 4.924606015288556904e+01 5.358314000611898820e+01 5.755764546736589438e+01 5.689834948801963321e+01 5.634455115293387450e+01 5.900171417663575824e+01 6.494318963066734796e+01 7.020835180815892329e+01 6.751368326402029663e-02
3.474999955651238842e-02 4.216780194361610512e+01 3.693647378154381045e+01 3.524196543720766783e+01 3.215906836048492323e+01 2.791381412128131956e+01 2.620101930130896051e+01 2.883627614368536385e+01 3.211157366882509479e+01 3.273157347467700617e+01 3.040566446409276580e+01 3.008784059570073666e+01 2.669786926100835700e+01 2.189769416516182687e+01 1.397660324888488148e+01 8.339697506825357820e+00 1.181152263745736164e+01 9.257842563137883118e+00 1.232797645886457616e+01 1.331882445831061901e+01 1.218427527823254941e+01 1.052728802415936826e+01 1.207417761070230888e+01 1.633980000383182585e+01 1.923525251883738107e+01 2.020328250884032428e+01 2.486243761679809694e+01 2.926900546749291365e+01 3.318209241900822803e+01 3.498338263170357720e+01 3.284498657734405214e+01 3.464829224704055122e+01 2.928641011468105404e+01 2.352134474963615673e+01 2.076235970870796166e+01 2.479776033020937120e+01 2.966937849251035431e+01 2.928902907628210173e+01 3.001978071475016918e+01 3.521670423902672553e+01 3.778547618520060070e+01 3.507197133525879451e+01 3.388481881279966501e+01 3.421925360114647674e+01 3.514699062946502295e+01 3.110423546279845297e+01 2.657929232420450916e+01 2.377158020383759762e+01 1.944128748848960342e+01 1.584341449685717862e+01 2.006642232610055387e+01 2.568904376125724554e+01 2.620084646649593552e+01 2.305647313781319241e+01 2.032187521538367747e+01 2.325269742642975501e+01 2.830275840597062853e+01 3.421788414452989713e+01 3.459897670545233694e+01 3.062281047152070457e+01 2.904676679638463810e+01 3.331799971502298519e+01 3.875665389792471416e+01 4.520522764452169895e+01 4.752310928964969605e+01 4.191425065002144379e+01 3.673705186860602367e+01 3.787941761576109911e+01 4.041327675689334598e+01 3.818648538394714365e+01 3.853666508723296857e+01 3.874387606970773135e+01 3.517039373786042233e+01 3.146417171936191792e+01 2.682621676683336176e+01 2.640494332452473358e+01 3.031169576136603894e+01 3.113974031168484657e+01 2.862899750193463433e+01 3.027628694277473542e+01 2.918708378704155137e+01 3.127690720313339412e+01 2.943926333339780044e+01 2.964328522840062163e+01 3.310415015970019681e+01 3.170037977862570955e+01 3.208625877448879748e+01 3.289127046102892393e+01 3.767015317469042657e+01 4.308560398417460391e+01 4.798264119514786330e+01 5.132876148303260067e+01 5.672118132671855051e+01 5.492466733967563641e+01 5.126433173962523426e+01 5.108209882747362229e+01 5.472839601757964090e+01 6.033126768864939748e+01 6.682361351277886286e+01 7.019212323357411354e-02
4.228991416757432731e-02 4.133154406015846405e+01 3.505778069417949894e+01 3.034030637950503362e+01 2.913006568444836120e+01 2.689309095282459694e+01 2.211327331682104358e+01 2.198200603059229863e+01 2.635831663513142331e+01 2.827450895004455944e+01 2.454325788052444324e+01 2.318519599990797531e+01 2.088360781754095186e+01 1.816915432425585308e+01 1.197665921070332473e+01 7.588981916683531281e+00 1.086857273497414056e+01 9.220591117091538891e+00 1.394416925562152443e+01 1.546031703404926461e+01 1.188509072374374576e+01 1.435363170642843933e+01 1.570355935718021456e+01 1.410203354657795849e+01 1.528873583655685131e+01 1.877970533200258529e+01 2.224153567115175179e+01 2.423444158020923567e+01 2.926756187501980122e+01 3.526886143976382471e+01 3.788333851904146599e+01 3.821445768349116179e+01 3.142826089400696787e+01 2.582690584484445750e+01 2.493274729462807215e+01 2.485637016527943643e+01 2.927481337652972826e+01 3.419690439699545692e+01 3.512621967799830003e+01 3.722718352523612850e+01 3.920752534812920942e+01 3.603876797716361580e+01 3.358214174829291920e+01 3.389691730330081754e+01 3.109879186522445593e+01 2.632669147065971771e+01 2.149417958165363984e+01 1.975772771339048361e+01 1.704286386227538941e+01 1.923910237568484760e+01 1.998815597813895550e+01 2.413668394113746984e+01 2.934750746545512001e+01 2.766408270108342293e+01 2.340767268869844742e+01 2.626969347162288315e+01 2.905297899559434782e+01 3.531834196390545344e+01 3.986609943160153335e+01 3.695870045701488493e+01 3.231231181550506903e+01 3.491089651969492280e+01 4.063862713838852159e+01 4.371640205511998545e+01 4.129305280908982922e+01 3.774096658555451711e+01 3.545898015377937185e+01 3.219312734477074400e+01 3.643203528719332240e+01 3.711961184316848517e+01 3.335115584001319888e+01 3.254523338951465661e+01 2.956750687618924900e+01 2.925738185026409255e+01 2.663204370739861915e+01 2.934585964774103317e+01 2.717485528290949759e+01 2.783193799844927696e+01 3.082758168534872567e+01 3.223314967038679413e+01 3.355683769275223227e+01 3.512774535090277084e+01 3.444382791648616404e+01 3.248388955896836450e+01 3.645401679129474815e+01 3.609987293043501211e+01 3.634773370657808300e+01 3.376679355176837305e+01 3.745940482880614297e+01 4.179336139581508291e+01 4.458425307927085868e+01 4.995432922644923224e+01 5.199517423260290627e+01 4.952263143151563440e+01 4.743803724937307464e+01 5.109009161144442146e+01 5.688372651253818901e+01 6.144202825524175182e+01 6.813830351088911641e+01 5.391874117148937051e-02
2.893750891725621610e-02 4.134012415516439631e+01 3.633465077167971913e+01 2.963608445518866574e+01 2.495943706382641381e+01 2.714959345907407240e+01 2.286765340223211496e+01 1.843140691535776199e+01 2.012499416382399176e+01 2.278664144062211605e+01 2.188339115934237000e+01 1.793251840377826056e+01 1.653885819159031456e+01 1.366818523757778081e+01 1.135732364081831491e+01 7.611283957137167100e+00 8.720810479868834619e+00 1.241847849076543042e+01 1.688463475498426192e+01 1.756733754733694752e+01 1.363088661601223528e+01 1.672138876745637148e+01 2.008243600616277647e+01 1.922712645713815860e+01 1.915306126226264993e+01 1.709928655867510372e+01 1.869237010720443237e+01 2.264131913169969579e+01 2.725366160722681741e+01 3.220382362622774508e+01 3.692376462880689303e+01 3.802466352306486641e+01 3.308682704373849504e+01 3.099541380844830130e+01 2.881452047146761331e+01 2.912023373330312381e+01 2.850071893496672004e+01 3.285957628807062036e+01 3.894355550505446217e+01 4.181925864906180834e+01 3.783927285513853889e+01 3.159080609639839565e+01 2.788370798337125223e+01 2.778526649886833155e+01 2.485065302374056273e+01 2.382708902786778538e+01 1.988077551400969512e+01 1.717099404828173448e+01 2.037254892808095263e+01 2.397674886464448818e+01 2.493874569136015040e+01 2.577209200408186973e+01 3.072924261300188675e+01 3.206883808990414764e+01 2.920300713105561385e+01 2.776724392730681501e+01 3.173137018050509894e+01 3.650537723352593389e+01 4.247368940799624681e+01 4.197451958446387721e+01 3.813223781895251818e+01 4.062975245183915263e+01 4.312724147923233886e+01 4.133438882571550010e+01 3.541505073850317586e+01 3.227365908152498264e+01 3.236226023314853251e+01 2.863865559192949206e+01 3.339928845566686277e+01 3.735918126355238655e+01 3.244220806259969692e+01 2.715213242333039645e+01 2.544652688516868011e+01 2.624526772110998607e+01 3.000181653864715869e+01 3.367198639419683559e+01 3.131976614749601140e+01 3.261022662872069589e+01 3.411789411275535855e+01 3.788047364577480636e+01 3.944759747081802459e+01 4.223525354283562194e+01 4.138521988161276965e+01 3.767540480773055123e+01 3.961597858465834321e+01 4.265509549255186528e+01 4.194209599290542911e+01 3.762414534841285274e+01 3.454506913612605956e+01 3.770100467662180677e+01 4.331106285080575447e+01 4.820542814524976905e+01 4.687077355025636649e+01 4.510418548210598289e+01 4.807674081353493278e+01 4.988608795136397589e+01 5.370129661593797721e+01 6.041583518368823036e+01 6.747490722117019857e+01 3.084909419355171684e-02
5.125576366486798985e-02 3.806755635411855110e+01 3.153975645190271848e+01 2.580776113539830519e+01 2.148293670104797570e+01 2.335135735512167798e+01 2.397967325200083266e+01 1.907679394131216455e+01 1.528581423774647874e+01 1.689664040548903401e+01 1.896063985491062454e+01 1.689163484678174143e+01 1.253873069597917045e+01 1.148136530373697539e+01 9.246448777915837525e+00 1.120037550748963184e+01 1.269601155628943090e+01 1.365961078805366924e+01 1.818108041958444687e+01 2.093681056783922045e+01 1.814072796101142870e+01 1.579302355761167576e+01 1.924955107857048020e+01 2.289637677369242041e+01 2.407557592073718666e+01 2.189956606833169772e+01 2.242898602680017461e+01 2.042370338724197154e+01 2.285728096128264397e+01 2.708421950507004539e+01 3.389692508917358538e+01 3.968731277350713782e+01 3.847188577181685076e+01 3.691047739572327657e+01 3.514246002381669598e+01 3.582885498030805849e+01 3.276691718975238388e+01 3.473120792069904184e+01 4.079810777929257881e+01 4.373534457864876401e+01 3.849654879563939147e+01 3.255173520451839408e+01 2.683201497576326844e+01 2.282777490010367671e+01 2.047691762250105540e+01 2.010030954107199719e+01 1.719997363340980456e+01 1.916113311294262189e+01 2.337995563242265717e+01 2.678377875884870463e+01 3.003999809555085321e+01 3.063026037022267900e+01 3.309815544387775788e+01 3.763111207705090067e+01 3.579803423736030510e+01 3.259229394561059934e+01 3.370649673528171775e+01 3.984379256598503360e+01 4.607450790373486882e+01 4.726593908729846305e+01 4.490845436735592955e+01 4.513531762817724768e+01 4.290031102078592085e+01 4.065005104777326750e+01 3.384903367390184314e+01 2.859409340888979756e+01 2.801307571950241027e+01 2.520807873310695868e+01 2.823801257002291010e+01 3.230076952845843152e+01 2.964491765798122458e+01 2.633179498930689988e+01 2.906946297343787933e+01 3.007123321445090625e+01 3.238214975661806960e+01 3.720426883122126327e+01 3.756548897373021845e+01 3.912132966244067944e+01 3.955929493781795259e+01 4.291190171465088099e+01 4.563070600821715317e+01 4.846942444356067625e+01 4.657201613786624961e+01 4.366054738196131524e+01 4.538203028885299517e+01 4.834888775277410389e+01 4.590266256968390479e+01 3.927534345595735488e+01 3.544155465543209971e+01 3.848661104037935843e+01 4.176913582631526367e+01 4.358089562585300314e+01 4.272409596236555274e+01 4.624678716736764983e+01 5.063495157026887483e+01 5.422334674950882061e+01 5.471171139505214853e+01 5.905102707995173006e+01 6.554994159066221471e+01 3.370123370926102202e-02
8.534095332704738635e-02 3.672380751872916704e+01 2.971297047516864609e+01 2.365035627498152593e+01 2.003213589852541077e+01 1.891336760203657974e+01 2.018797681119347232e+01 1.833579995766537962e+01 1.494196404030163805e+01 1.237766630477590368e+01 1.439317634000756030e+01 1.543659853163324769e+01 1.189196601117948759e+01 9.444332471599341972e+00 1.187632709822957722e+01 1.150310497821658728e+01 1.528744811379837465e+01 1.832165538304644414e+01 1.958239447850392168e+01 2.383676292080858516e+01 2.242896351238506369e+01 1.857965525511347948e+01 1.712337556346543721e+01 2.078001035051905632e+01 2.551377140661001164e+01 2.813512965919351316e+01 2.758913666518686369e+01 2.321748898729456556e+01 2.636512203864859671e+01 2.667507143059277297e+01 3.097163616140944953e+01 3.782210498626451312e+01 4.223015203431864961e+01 4.379397011898888792e+01 4.246474071817916496e+01 4.186100129129172132e+01 3.999873384634158668e+01 4.108796048589893246e+01 4.444186032613205839e+01 4.668275869209602291e+01 4.333905106596954937e+01 3.719791702368517861e+01 3.092928504245806209e+01 2.488652096512160483e+01 2.206719362959418973e+01 1.884639593235475630e+01 1.956781275587582769e+01 1.743554942888857440e+01 2.035816271951987844e+01 2.263492335712066250e+01 2.769832479323986263e+01 3.046945900212279312e+01 3.382636403691257243e+01 3.623848422786645074e+01 3.876292595867764135e+01 3.878531655168757908e+01 3.919837734697328813e+01 4.352508518609875665e+01 4.750911762514488856e+01 5.044767724126540287e+01 4.807083947846673766e+01 4.316036810209762820e+01 3.786546723305797713e+01 3.548318501917616175e+01 3.090197018575361199e+01 2.733298351199018938e+01 2.427843462508678485e+01 2.342409118120965061e+01 2.472028648666786310e+01 2.792628161304178036e+01 2.646761461740113219e+01 2.973096446650008673e+01 3.289663554656640088e+01 3.633119470401662454e+01 3.816825685637407162e+01 4.039177250005241149e+01 3.906768431995445212e+01 3.694075535598215509e+01 3.744732472261517131e+01 4.109529924145982704e+01 4.472009775977941359e+01 4.764976174063085779e+01 4.490592834649461196e+01 4.216594590141617260e+01 4.478928736982015835e+01 4.922527364147308049e+01 4.734216246653492277e+01 4.165128686188319307e+01 3.913924018841925800e+01 3.592223464186791659e+01 3.727697006579759886e+01 3.976952929631386979e+01 4.410534104934458810e+01 4.803250376942973077e+01 5.441622375716876547e+01 5.983900130303698006e+01 6.016344587419982304e+01 6.278489509131733826e+01 6.845202658720319278e+01 9.798229383936907233e-02
5.796984041005667082e-02 3.753326440558945620e+01 3.112455955910684935e+01 2.613100019657346706e+01 2.437948344926802946e+01 2.038179442908324290e+01 1.664359669260297281e+01 1.442293878606010082e+01 1.297445465319097835e+01 1.324219435253723631e+01 1.040807671063108408e+01 1.130648689571210674e+01 9.335076320678405537e+00 1.245052999358019896e+01 1.600973100388036841e+01 1.476732779115250693e+01 1.919104065424477668e+01 2.494688440386129713e+01 2.468499248209556640e+01 2.712533645391716419e+01 2.324114682347453353e+01 1.876598389632184194e+01 1.997155936024510936e+01 2.382261965417334082e+01 2.890055664657681689e+01 3.440699008852133289e+01 3.174168518632718161e+01 2.739127055651002962e+01 3.062204583068128017e+01 3.137003180866114604e+01 3.056912091911390306e+01 3.501120181522900054e+01 4.079132341285627916e+01 4.604251589521904720e+01 4.543746407487801520e+01 4.322365196769231233e+01 4.440367556593275111e+01 4.523855883177231618e+01 4.549692538699355993e+01 4.381153186827868495e+01 4.372354005188048376e+01 3.826889330754247709e+01 3.248485823321345833e+01 2.817716053896067407e+01 2.365636971231765529e+01 2.255128136647238790e+01 2.362493073006552180e+01 2.041320799760456595e+01 1.765316690335266259e+01 2.031071858662728502e+01 2.310422615004541314e+01 2.435580300390794051e+01 2.800305835839981583e+01 3.014673329798739232e+01 3.565154938097055748e+01 4.033369929887352612e+01 4.465744303786546254e+01 4.486959538868707398e+01 4.296312877444676559e+01 4.658266068298236462e+01 4.545641798751091756e+01 3.927917956320475668e+01 3.515025099066266989e+01 3.011912794162912377e+01 2.772319936601195067e+01 2.397206209964974377e+01 2.706633538056469490e+01 2.890119521156811189e+01 2.872182806392721588e+01 2.616833199925989106e+01 2.836709205771338560e+01 3.318521505602269883e+01 3.761193078968072712e+01 3.812399200921755948e+01 4.037402404484871710e+01 3.894785392127514712e+01 3.538958842689501694e+01 3.205759857970959814e+01 3.262247160613913621e+01 3.643593986119523720e+01 3.918880048845257846e+01 4.258102855950210142e+01 3.998766952921714335e+01 3.725187094673817967e+01 3.999774191602728735e+01 4.572497727543244395e+01 4.898188728590728402e+01 4.659109983490121465e+01 4.239071175230457555e+01 3.785507737872154621e+01 4.043858609313746655e+01 4.337489458788840579e+01 4.656616835123411846e+01 5.088739825508053372e+01 5.626375489799120544e+01 5.820695851842871349e+01 6.137480959845066764e+01 6.652919220859257621e+01 7.207716805707146079e+01 2.829392550559473030e-03
9.041221178575080397e-02 4.084556586033491499e+01 3.636176795704140119e+01 3.182972042468025720e+01 2.630966510955912696e+01 2.142823632352913421e+01 2.116210338156763981e+01 1.921325141834265793e+01 1.724315381224809940e+01 1.606231555993034021e+01 1.152734302569964164e+01 8.142790948033800547e+00 1.145525455284356475e+01 1.454406647884261972e+01 1.997051108836959799e+01 1.973423828782781797e+01 2.032489287457839566e+01 2.542555104180839720e+01 2.970112855607286306e+01 2.969752706435096101e+01 2.470083193925330534e+01 2.226389971252533684e+01 1.919183747746908608e+01 2.123486833086308678e+01 2.626959382443321545e+01 3.162287695002930121e+01 3.423886457774548830e+01 3.308054654896137237e+01 3.366176979119525470e+01 3.707749075433581254e+01 3.515398732630794143e+01 3.996018766271216549e+01 4.448346533273277004e+01 4.736302479809804566e+01 4.303695501383234756e+01 3.842757109110394964e+01 3.843864774259573380e+01 3.997665902625117695e+01 4.066321899133907891e+01 3.753682099921839921e+01 4.088287014129609531e+01 4.129699301474566653e+01 3.675530083437968898e+01 3.099228027745898117e+01 2.875633261411989139e+01 2.793938766017561548e+01 2.527141414267077835e+01 2.146037229632054277e+01 1.921477201548886526e+01 1.710469376487568738e+01 1.813679928215074710e+01 1.990199561794958072e+01 2.314528654877940284e+01 2.643688621568764319e+01 3.154989744410880803e+01 3.804909903113360770e+01 4.404623279664445334e+01 4.112829700099247532e+01 3.789921001993056393e+01 4.245532944712697088e+01 4.373733212927556480e+01 3.792062034957194783e+01 3.247356523755804858e+01 2.807803489888603821e+01 2.476995448854876258e+01 2.255812362969284379e+01 2.722019807923676282e+01 3.294229883894165312e+01 3.318769561496370812e+01 2.941374873572683768e+01 2.628477762958971198e+01 3.123143885317146839e+01 3.505363856811944601e+01 3.296615307521951621e+01 3.602805103959866528e+01 3.440873858458370194e+01 3.182435945987256076e+01 3.441087759347070829e+01 3.579018678139186704e+01 3.399015246075361318e+01 3.643236826461409095e+01 3.783232060464538904e+01 3.615363800578490583e+01 3.855605197208429757e+01 3.777930533784670075e+01 4.191038042942032860e+01 4.647805268897202779e+01 4.894419958834311046e+01 4.469477463610466117e+01 4.224024225175931235e+01 3.989228635060663919e+01 4.229773865870373584e+01 4.327291648734050966e+01 4.774427949946642968e+01 5.145338408025467203e+01 5.265317983381082456e+01 5.686755610459323407e+01 6.409054556852741769e+01 7.073721181278519055e+01 4.614186559925494840e-02
8.029406028710217580e-02 4.130248220676266158e+01 3.868302805578885994e+01 3.625373807315227737e+01 3.128216974434159070e+01 2.658638783381027082e+01 2.738316202749398443e+01 2.216884411983105707e+01 1.740765858166310309e+01 1.351554289833323352e+01 9.758056083105186573e+00 7.495001903245230856e+00 1.110632522230534391e+01 1.391756028867840023e+01 1.807515816404473341e+01 2.181984766158614519e+01 2.417622617300157728e+01 2.614409505572196224e+01 3.126376914546499108e+01 3.345178556154603200e+01 3.010289368249843633e+01 2.651774448958439478e+01 2.231478363448321289e+01 2.441259652765026189e+01 2.322993834950365510e+01 2.764254777410550190e+01 3.331607113429873834e+01 3.838610096352638834e+01 3.957991063437287238e+01 4.218186249424844192e+01 4.126317097956634683e+01 4.508537794572128377e+01 4.719125714788275161e+01 4.569920400936102567e+01 4.417573938329061178e+01 3.759494333862096482e+01 3.325479732455350046e+01 3.643987810775455216e+01 3.620281996325895335e+01 3.226466138488536473e+01 3.703308209199670387e+01 4.135752408170031913e+01 3.916644245432634364e+01 3.416375127056952010e+01 3.002458890595201169e+01 2.639887496587701676e+01 2.194862881727667769e+01 1.759925376695936095e+01 1.722965057250249998e+01 2.050879722469605682e+01 2.235220054494119424e+01 2.421424776367406295e+01 2.830689829191091889e+01 3.180363175115886065e+01 3.613681906904335506e+01 4.111255953136674179e+01 4.440828321033656323e+01 3.888877541333602750e+01 3.404901997942254610e+01 3.843527010952622192e+01 4.377576873033404325e+01 4.184000456120213585e+01 3.778346773759808030e+01 3.357628219324848828e+01 2.824394061076078444e+01 2.384435017952911551e+01 2.708640317352902116e+01 3.178700919868087027e+01 3.528346459832197723e+01 3.160822597754903995e+01 2.679772155628052843e+01 2.964739054516373074e+01 3.093512685059189593e+01 2.896021416812623528e+01 3.165164274623067797e+01 3.071937629722080842e+01 3.351880757307800707e+01 3.704788137604192144e+01 4.042828821298043351e+01 3.761219402329447803e+01 3.371834285568847633e+01 3.370755420047188267e+01 3.817088024672892743e+01 4.257740221431177474e+01 4.137854476938949944e+01 3.910419800789240696e+01 4.221298475462486977e+01 4.445659124909867899e+01 4.652105703226258981e+01 4.668336802678744135e+01 4.359550316110749435e+01 4.068809711129261331e+01 4.402121972750551038e+01 4.503089178433170758e+01 4.743408874073017500e+01 5.136110312971105429e+01 5.513169811983946289e+01 6.134548987906781292e+01 6.793665368790695425e+01 4.351556056208284728e-02
4.037252567882113757e-02 3.515704659100733664e+01 3.335736755709248769e+01 3.581995587011120818e+01 3.568308239527917891e+01 3.327028144281877076e+01 3.235492274443193139e+01 2.746233769961316895e+01 2.229898458169591891e+01 1.777015311756343507e+01 1.376068099828727576e+01 1.022801122441021882e+01 8.071244620190805463e+00 9.492629326759571384e+00 1.279867871952958325e+01 1.873471494876651278e+01 2.546483101701595331e+01 2.979927642367483998e+01 3.313214066700018634e+01 3.802053788590442451e+01 3.379163915295720244e+01 2.823529520690694383e+01 2.717087377023966610e+01 2.818858571491260534e+01 2.440014449811346253e+01 2.881514884404899135e+01 3.476875445934981457e+01 3.856018895537243907e+01 4.166170746418498538e+01 4.533965692515478452e+01 4.738123568084630932e+01 4.951171750045631370e+01 4.516731237229835472e+01 4.072185281181164385e+01 3.926050719499206565e+01 3.483799925114598750e+01 3.055301720431484469e+01 3.207657135747323451e+01 3.106935761889647551e+01 2.782633361367228630e+01 3.156330804297217441e+01 3.435456871200020146e+01 3.434186923892618637e+01 3.015045499861823330e+01 2.506037772772704386e+01 2.204836867173893467e+01 1.851363715338501947e+01 1.967723836641400581e+01 2.119719855543556974e+01 2.439185720959272174e+01 2.911611857199853404e+01 3.071375515552444924e+01 3.305019859524249171e+01 3.451659200696693119e+01 3.837853357856131709e+01 4.296249729108917847e+01 4.103249824630916009e+01 3.481711782149956491e+01 3.101631231011301537e+01 3.629428736352222984e+01 4.248362314809804730e+01 4.473820283288541333e+01 4.120782037089936267e+01 3.687211298070148757e+01 3.061943565242588150e+01 2.679575918434088422e+01 2.353427226782013548e+01 2.741789724841785159e+01 3.366316577544461097e+01 3.441945598256854311e+01 3.031849276944667082e+01 2.701328403321162597e+01 2.677691233542533311e+01 3.015520310678228100e+01 2.987078930775515317e+01 3.306733648787516699e+01 3.473435982068351535e+01 3.976271594271504028e+01 4.601888335937358221e+01 4.269807965392015348e+01 3.737155016762449122e+01 3.490213213170811457e+01 3.945722397790012792e+01 4.567788911793770268e+01 4.588827139697079360e+01 4.199252365216698024e+01 3.906972865709231968e+01 3.971043796324166664e+01 4.386270574361418539e+01 4.748470221204473063e+01 4.635023331563029103e+01 4.220686981816047734e+01 4.554604172937883533e+01 4.869032793383254898e+01 5.108485450288627305e+01 5.114547913619685460e+01 5.544294556299837495e+01 6.204613912021259381e+01 6.771669380238496672e+01 3.536628060114886674e-02
8.575608572762147275e-02 3.213465057644354061e+01 2.808540383550461428e+01 3.171576211034793147e+01 3.671396413630858291e+01 3.736564353872088873e+01 3.363673190045587091e+01 2.812851007533968328e+01 2.150900447741783950e+01 1.593910852755283969e+01 1.061109264943060992e+01 7.287933838246128282e+00 1.078338525284370242e+01 1.327300747040151840e+01 1.280973762601066568e+01 1.754709603650559302e+01 2.404405813451842278e+01 2.880874020148036863e+01 3.322789065192613123e+01 3.812096335336726582e+01 3.734620569169372573e+01 3.316638314422004186e+01 3.390876490636046015e+01 3.200498805142173353e+01 2.660524378531692946e+01 2.748965391675019276e+01 3.175512180830582665e+01 3.391579588000364964e+01 3.769860005158161442e+01 4.299232990511310959e+01 4.934117608282037537e+01 5.327638051769972094e+01 4.856819064802740371e+01 4.112418877652879701e+01 3.527088200173108845e+01 3.181116370300177820e+01 3.184445666842533740e+01 2.828117614446537686e+01 2.643743887898031275e+01 2.504065968903931960e+01 2.741491054753445056e+01 2.729918213934767479e+01 2.823931850399613452e+01 2.393860678227840921e+01 2.203056606684026164e+01 1.933927607787902403e+01 2.018908066660743472e+01 1.755534666965158763e+01 2.152934486468493702e+01 2.787195359515144588e+01 3.274275710882818657e+01 3.106367844592202232e+01 2.855028886597969162e+01 2.891059371954214541e+01 3.317276015966123737e+01 3.819380268834120074e+01 3.558935797287752223e+01 3.012210737865843413e+01 2.870791190349068245e+01 3.343386258710594205e+01 4.007515750743414173e+01 4.243309331167533571e+01 3.753216975630348173e+01 3.500445680394938108e+01 3.104645942293883820e+01 2.669503419070800376e+01 2.342437850722524928e+01 2.737357500955133816e+01 3.420316862902771504e+01 3.717916500249668132e+01 3.295604499939140197e+01 3.073368520308274299e+01 2.827605996234530750e+01 3.172933916060913617e+01 3.372896132218345144e+01 3.717435496029993658e+01 3.931434435827283380e+01 4.149269673712574047e+01 4.708645675072403236e+01 4.746501360222771382e+01 4.236238739328166503e+01 3.851714094975621094e+01 4.262088541732068592e+01 4.875860662242408949e+01 4.941406212784197294e+01 4.471708949437775971e+01 4.305452805057913679e+01 4.195724943446631983e+01 4.147881734430600886e+01 4.644325602441448808e+01 4.900383666322217380e+01 4.572808693426240723e+01 4.446332511578349767e+01 4.822842845593165606e+01 5.420186429804869022e+01 5.535966527397522441e+01 5.477913806522953166e+01 5.889398304200919654e+01 6.515275787478999803e+01 6.257252417314770887e-02
