ncols 100
nrows 38
xllcorner 0
yllcorner 530
cellsize 10.0
9.681471340935822456e-02 5.000170684997345347e+02 5.000444109162435780e+02 5.000371051010471319e+02 5.000044463256679705e+02 5.000338458290689800e+02 5.000612550246584078e+02 5.000825615979286454e+02 5.000008203027702507e+02 5.000717301205846184e+02 5.000661762336027323e+02 5.000945702197890910e+02 5.000834897784259283e+02 5.000571961929035751e+02 5.000089712979450951e+02 5.000066398053226067e+02 5.000965357688083373e+02 5.000674126346011690e+02 5.000122053221737133e+02 5.000681519688856724e+02 5.000167709954272937e+02 5.000258629828725816e+02 5.000758873176517909e+02 5.000830221449161854e+02 5.000375017377133986e+02 5.000708521392384114e+02 5.000861103568506110e+02 5.000042299542425894e+02 5.000226978528793893e+02 5.000505115758893453e+02 5.000370075966655463e+02 5.000551051409482284e+02 5.000518552748006869e+02 5.000269933496226713e+02 5.000562067288403227e+02 5.000492480714833619e+02 5.000502800581435849e+02 5.000113549223663654e+02 5.000906723845448028e+02 5.000758027708891973e+02 5.000256777769560017e+02 5.000277609419626970e+02 5.000286268543742949e+02 5.000811733626356386e+02 5.000187866459209545e+02 5.000849550357245334e+02 5.000788907840734510e+02 5.000411667100383397e+02 5.000764736965107318e+02 5.000054761861813404e+02 5.000880367792151446e+02 5.000296831382188998e+02 5.000782307968235045e+02 5.000463554885841404e+02 5.000383521013959580e+02 5.000645610017004969e+02 5.000550334907055117e+02 5.000914056868567172e+02 5.000774131175124921e+02 5.000141002534375048e+02 5.000197257894835161e+02 5.000783380721885010e+02 5.000585554013167666e+02 5.000272470625495771e+02 5.000277022038063137e+02 5.000037719668624163e+02 5.000960522364639473e+02 5.000253575330630156e+02 5.000937422978745417e+02 5.000010074943829181e+02 5.000476534893825260e+02 5.000054485071017325e+02 5.000191541369985657e+02 5.000222150094170388e+02 5.000579245926218732e+02 5.000770991940929093e+02 5.000102280591888189e+02 5.000512718724306751e+02 5.000125600257317160e+02 5.000781110793049038e+02 5.000493406111303329e+02 5.000617279144085501e+02 5.000462456713095207e+02 5.000519144174372741e+02 5.000335215105047837e+02 5.000951796538586791e+02 5.000036929137821744e+02 5.000894778305014370e+02 5.000498814990394862e+02 5.000809616116465577e+02 5.000811404606362203e+02 5.000494135271662799e+02 5.000751417313140337e+02 5.000895017283307880e+02 5.000766098886897453e+02 5.000855838788432379e+02 5.000653505258466112e+02 5.000075348031622298e+02 5.000399168805012096e+02 6.443921641691394142e-02
6.462590325002691427e-02 5.000957852837032647e+02 5.000295609126848149e+02 5.000030162379989633e+02 5.000790030116583580e+02 5.000772686582737379e+02 5.000359956491932962e+02 5.000057958936945397e+02 5.000695705918066665e+02 5.000960691177044737e+02 5.000394160963197123e+02 5.000644650382737950e+02 5.000517012969311850e+02 5.000308778978226201e+02 5.000684319302463905e+02 5.000380292852680668e+02 5.000858692604998055e+02 5.000947053701787013e+02 5.000144272391377740e+02 5.000206786893695607e+02 5.000484479004261402e+02 5.000770034541516225e+02 5.000957282595856555e+02 5.000933213680313543e+02 5.000645383947899631e+02 5.000619794591718232e+02 5.000065446722436491e+02 5.000308636692598157e+02 5.000621596958737882e+02 5.000031285032163169e+02 5.000540539154897033e+02 5.000949811654341488e+02 5.000021836115317342e+02 5.000065249036499040e+02 5.000182430903811905e+02 5.000156110535205016e+02 5.000795178691216734e+02 5.000206615885524570e+02 5.000079288424615811e+02 5.000925387067913448e+02 5.000573622024689371e+02 5.000164743319280092e+02 5.000877039847699734e+02 5.000694882313829908e+02 5.000018811854193359e+02 5.000363733026298405e+02 5.000985932892561436e+02 5.000153911290507267e+02 5.000041391480542075e+02 5.000181650629779142e+02 5.000404614766028430e+02 5.000823618455967789e+02 5.000486313944615517e+02 5.000100094303084006e+02 5.000051842001421960e+02 5.000536151914376433e+02 5.000028327767312248e+02 5.000682763118801404e+02 5.000168694799668287e+02 5.000247593542172240e+02 5.000574102676409893e+02 5.000801970736555404e+02 5.000253824751327443e+02 5.000095022337196724e+02 5.000457575599171491e+02 5.000726833735529340e+02 5.000187858400748269e+02 5.000528421807356381e+02 5.000815949589369325e+02 5.000320737063610750e+02 5.000611420926261985e+02 5.000354914423231776e+02 5.000700246214694289e+02 5.000244856292927125e+02 5.000379539786571286e+02 5.000328217304797249e+02 5.000175610249700071e+02 5.000040997969786645e+02 5.000087347616030229e+02 5.000275981410906070e+02 5.000404856188543476e+02 5.000249139963553375e+02 5.000981941389036933e+02 5.000563120101566597e+02 5.000473405506678546e+02 5.000346135879786971e+02 5.000710160544289238e+02 5.000065280399176686e+02 5.000482987434153870e+02 5.000653834345979476e+02 5.000498255612777143e+02 5.000027406987312020e+02 5.000885915019148342e+02 5.000285957823316494e+02 5.000579186788544916e+02 5.000111627931610769e+02 5.000905949288183479e+02 5.000035212879217852e+02 5.000726742492292942e+02 8.356295121914231183e-02
4.507220163753934694e-02 5.000786778858038701e+02 5.000130930639122084e+02 5.000857214929804968e+02 5.000768995494882461e+02 5.000506175123021535e+02 5.000091421548351605e+02 5.000673674252925593e+02 5.000461033010459460e+02 5.000227141512464755e+02 5.000835776138428628e+02 5.000623766804655475e+02 5.000900325705054001e+02 5.000370309923227410e+02 5.000650175835471032e+02 5.000539376552460453e+02 5.000125811027482428e+02 5.000525691292241959e+02 5.000431639390095029e+02 5.000416998482446047e+02 5.000242338438059164e+02 5.000437005896857272e+02 5.000414224592236110e+02 5.000405055348480232e+02 5.000005355504036402e+02 5.000168037318113079e+02 5.000983587171195381e+02 5.000436596250512480e+02 5.000283794604761169e+02 5.000701181891604392e+02 5.000466168324390992e+02 5.000205615173910587e+02 5.000510583189005160e+02 5.000166213466167164e+02 5.000260855625620025e+02 5.000800194817712168e+02 5.000294401354660749e+02 5.000354674423890060e+02 5.000682649270724482e+02 5.000977405500350415e+02 5.000996009995316740e+02 5.000140795750232883e+02 5.000499806819829018e+02 5.000875013507678091e+02 5.000039335597172681e+02 5.000113325673510190e+02 5.000205439545532045e+02 5.000808140513197486e+02 5.000909365374818663e+02 5.000912949817267759e+02 5.000899753524276434e+02 5.000012609868263667e+02 5.000885507073436997e+02 5.000624274562023857e+02 5.000937907974274026e+02 5.000500731149350599e+02 5.000257463968482057e+02 5.000622515175833769e+02 5.000437439621433100e+02 5.000321420403973320e+02 5.000413012743448462e+02 5.000891691897871851e+02 5.000469757098634318e+02 5.000735385476446027e+02 5.000480887976802364e+02 5.000004293085390259e+02 5.000983818389982503e+02 5.000056376690133675e+02 5.000032849012172846e+02 5.000521969093081225e+02 5.000681292504514772e+02 5.000996351489941958e+02 5.000199366039464621e+02 5.000608161455594427e+02 5.000184309914414484e+02 5.000059071227364029e+02 5.000450048144081165e+02 5.000931922487104657e+02 5.000114466828826494e+02 5.000307347151713770e+02 5.000501455906001524e+02 5.000399618528343808e+02 5.000835950166958241e+02 5.000110331091329954e+02 5.000434024175692116e+02 5.000996975964160924e+02 5.000746747523871818e+02 5.000060319473369645e+02 5.000397396084995307e+02 5.000164833551829702e+02 5.000499638323984186e+02 5.000647895009927879e+02 5.000859232269955328e+02 5.000684767687790782e+02 5.000068046900575496e+02 5.000134487092065569e+02 5.000814290937720443e+02 5.000104649115699544e+02 5.000186548284383434e+02 9.533907923725670058e-03
9.201679224510695559e-03 5.000251787661987919e+02 5.000387624577868451e+02 5.000807690809685937e+02 5.000515113772864879e+02 5.000016940254806173e+02 5.000437376830835206e+02 5.000001045530095780e+02 5.000148437272274009e+02 5.000814567442109251e+02 5.000612543457586412e+02 5.000740342257935822e+02 5.000174282050551255e+02 5.000973875208466666e+02 5.000696120652447689e+02 5.000534385416441410e+02 5.000426112141457793e+02 5.000656552338575125e+02 5.000131909853812999e+02 5.000051943244270660e+02 5.000558554743607260e+02 5.000908479064968901e+02 5.000174693932793275e+02 5.000910069165041136e+02 5.000148313097818686e+02 5.000325303238746528e+02 5.000980544534577916e+02 5.000964749820995507e+02 5.000750184039086434e+02 5.000301361807517537e+02 5.000865522639313667e+02 5.000737802915455177e+02 5.000166523289069005e+02 5.000306594580142701e+02 5.000363311325388622e+02 5.000814875802881261e+02 5.000712663290112232e+02 5.000438786597429726e+02 5.000465420005362489e+02 5.000856714772335749e+02 5.000707501592562494e+02 5.000465060388897882e+02 5.000398101993503701e+02 5.000663117542651435e+02 5.000564218946897768e+02 5.000134147544248435e+02 5.000836964587255125e+02 5.000674383301769126e+02 5.000443216142814435e+02 5.000149649435348351e+02 5.000459448965233378e+02 5.000949717278693356e+02 5.000487158585308407e+02 5.000133017802446034e+02 5.000923460974775594e+02 5.000396642707460160e+02 5.000388867370245407e+02 5.000892299895899100e+02 5.000393776896394229e+02 5.000547605786480858e+02 5.000125653295280017e+02 5.000612983122863966e+02 5.000112304093441367e+02 5.000233043264461230e+02 5.000106568917165077e+02 5.000280143255992584e+02 5.000401334580433286e+02 5.000246588645275665e+02 5.000810077490727963e+02 5.000493782978916784e+02 5.000911961870509685e+02 5.000097731976085242e+02 5.000030608497066851e+02 5.000818151839697521e+02 5.000257901166218630e+02 5.000639276697968398e+02 5.000871215336763385e+02 5.000777734576525404e+02 5.000042785779131691e+02 5.000989536700187159e+02 5.000641060605261146e+02 5.000176835105170881e+02 5.000208791920547924e+02 5.000244013663607348e+02 5.000111753149647598e+02 5.000226432549856099e+02 5.000419086868441241e+02 5.000777135747280795e+02 5.000974393606073818e+02 5.000251737389801292e+02 5.000886967413251227e+02 5.000286327205419639e+02 5.000122194271569356e+02 5.000138010627405265e+02 5.000609224249272984e+02 5.000390630092986726e+02 5.000613913917761124e+02 5.000252857352336946e+02 5.000039583592937902e+02 9.101795419348444882e-02
3.275978094226295045e-02 5.000223486715466379e+02 5.000760110659227280e+02 5.000318218885601027e+02 5.000125428996052506e+02 5.000163959117413697e+02 5.000835326761325632e+02 5.000476565542318781e+02 5.000739783351496612e+02 5.000570968285131244e+02 5.000616846282172219e+02 5.000944048621189495e+02 5.000375074678686929e+02 5.000625728409188469e+02 5.000515053989998364e+02 5.000474830077208708e+02 5.000353115318683308e+02 5.000360371460031956e+02 5.000967204102411188e+02 5.000303384798217508e+02 5.000161503088222616e+02 5.000133982435716007e+02 5.000073400030063908e+02 5.000592428040990853e+02 5.000776121917180035e+02 5.000408862183401197e+02 5.000039860399086820e+02 5.000158381620521482e+02 5.000832655840075063e+02 5.000973427894406313e+02 5.000333417177444062e+02 5.000968361273139067e+02 5.000856988328585544e+02 5.000581558233760120e+02 5.000036953281053229e+02 5.000600250788962740e+02 5.000813980531951870e+02 5.000394195851501991e+02 5.000515184065512244e+02 5.000628259128692434e+02 5.000527649505682461e+02 5.000572837402405071e+02 5.000238019512275969e+02 5.000973023206297512e+02 5.000071527954875137e+02 5.000282869133374675e+02 5.000158572514357047e+02 5.000732455596331647e+02 5.000469697193342427e+02 5.000175820234284174e+02 5.000527471096760337e+02 5.000773227252021798e+02 5.000147694953573705e+02 5.000907654962926472e+02 5.000827031625730115e+02 5.000513916679346949e+02 5.000424857400666951e+02 5.000940085135956679e+02 5.000034437210669580e+02 5.000950618429984047e+02 5.000025230881615244e+02 5.000413855893024220e+02 5.000830022253709330e+02 5.000523658502294779e+02 5.000785593180431192e+02 5.000464419234780280e+02 5.000531223886655425e+02 5.000290111632820071e+02 5.000312901675886792e+02 5.000563046395632227e+02 5.000786254127571056e+02 5.000491149791522503e+02 5.000038268433695521e+02 5.000076705918174298e+02 5.000409718418393936e+02 5.000978570203622553e+02 5.000218428233283134e+02 5.000087172259640624e+02 5.000656186246291099e+02 5.000474086819693298e+02 5.000819251940077947e+02 5.000403138637416873e+02 5.000284596282725715e+02 5.000347738941199509e+02 5.000374898776375971e+02 5.000562853202848146e+02 5.000778728873717682e+02 5.000787546652325091e+02 5.000059251104109421e+02 5.000087532922792093e+02 5.000716263227662353e+02 5.000075129137762247e+02 5.000782500583790693e+02 5.000454903166431109e+02 5.000510709321422382e+02 5.000846237482897436e+02 5.000460375898074972e+02 5.000635629793312091e+02 5.000799062082105024e+02 8.233627278259315896e-02
1.604474431627017639e-02 5.000041970510371812e+02 5.000174149087422961e+02 5.000132933974748539e+02 5.000937518941238409e+02 5.000215755848822710e+02 5.000100979008721538e+02 5.000361974156925839e+02 5.000427101995052794e+02 5.000936175130027550e+02 5.000366761813303924e+02 5.000270985102459917e+02 5.000464772547511529e+02 5.000578711378213370e+02 5.000857014928579360e+02 5.000560061244557915e+02 5.000220546226118472e+02 5.000684860352192800e+02 5.000010969325406336e+02 5.000541128002610662e+02 5.000533852219504070e+02 5.000830565366445057e+02 5.000130285057823016e+02 5.000819959471803031e+02 5.000194397326493458e+02 5.000945065117513764e+02 5.000772089298864103e+02 5.000462267073457383e+02 5.000076652308230791e+02 5.000160419659503077e+02 5.000688799306991541e+02 5.000240602008624364e+02 5.000583560817274815e+02 5.000192872373058890e+02 5.000736017066922159e+02 5.000160382263988481e+02 5.000097509910009421e+02 5.000742579810326447e+02 5.000659990782143609e+02 5.000471685765770644e+02 5.000201314766154042e+02 5.000811281651986064e+02 5.000363193536697395e+02 5.000111816201656438e+02 5.000598139647336779e+02 5.000997719952769671e+02 5.000520311261317943e+02 5.000544995051391197e+02 5.000348749220866011e+02 5.000506368158671080e+02 5.000253945628807060e+02 5.000910620994040983e+02 5.000108245400769533e+02 5.000631073965962514e+02 5.000769054567998069e+02 5.000619094794096782e+02 5.000937298840143512e+02 5.000145986013840798e+02 5.000414621577369303e+02 5.000011097929053108e+02 5.000447083986049392e+02 5.000014945352099289e+02 5.000319707509358409e+02 5.000123264620135046e+02 5.000804521521843640e+02 5.000291321458240645e+02 5.000884713912437860e+02 5.000613297198618170e+02 5.000547782089794282e+02 5.000025295917206449e+02 5.000854883207725834e+02 5.000820352131960362e+02 5.000124465562213913e+02 5.000408887977673089e+02 5.000708273439648224e+02 5.000581358553718587e+02 5.000948198085738454e+02 5.000696427990656048e+02 5.000092317879376083e+02 5.000312684634282050e+02 5.000458798278138488e+02 5.000467423814350241e+02 5.000610820144448780e+02 5.000863132419498243e+02 5.000299185538279971e+02 5.000279865357111362e+02 5.000123713203277021e+02 5.000911801623666975e+02 5.000293238522134516e+02 5.000615913440416307e+02 5.000729408390418484e+02 5.000877336564176971e+02 5.000993154058557479e+02 5.000331554246012047e+02 5.000371746137667515e+02 5.000930586086816447e+02 5.000624097987462164e+02 5.000375161982584018e+02 5.000394832898896311e+02 9.027359794386964620e-02
9.888620230072357742e-02 5.000973383607443452e+02 5.000994642004920365e+02 5.000160647880862825e+02 5.000005105157906655e+02 5.000992947435128144e+02 5.000534505823556515e+02 5.000332519657451371e+02 5.000145530680869115e+02 5.000755702227446022e+02 5.000986814144564505e+02 5.000989630797409973e+02 5.000341210618435639e+02 5.000761022905206801e+02 5.000424199311408415e+02 5.000150338641171857e+02 5.000668484369953717e+02 5.000574785269910194e+02 5.000611615363015972e+02 5.000417270840418951e+02 5.000846301111362209e+02 5.000252123987411892e+02 5.000819164649403206e+02 5.000639485665118968e+02 5.000321240525349822e+02 5.000253462866579071e+02 5.000075627421742865e+02 5.000296423089172890e+02 5.000194720972356777e+02 5.000812074511903802e+02 5.000672805695537022e+02 5.000900558397513578e+02 5.000236863607279929e+02 5.000209397048111555e+02 5.000990177175481790e+02 5.000831523157356742e+02 5.000064254794343697e+02 5.000088582484326025e+02 5.000184929467633310e+02 5.000570391373175880e+02 5.000341386986024190e+02 5.000200457257893731e+02 5.000347201161548014e+02 5.000068031719515602e+02 5.000541862637270469e+02 5.000115502606097948e+02 5.000389225236298216e+02 5.000570434356359328e+02 5.000008899787777068e+02 5.000382733116062468e+02 5.000240120104017478e+02 5.000161492674385499e+02 5.000751861849798843e+02 5.000448662331791070e+02 5.000721875053797021e+02 5.000880546662292545e+02 5.000774825735981040e+02 5.000937492229565464e+02 5.000060134098771414e+02 5.000767731895829797e+02 5.000278975791915741e+02 5.000675758485112965e+02 5.000017274762188890e+02 5.000797753754752648e+02 5.000988794007690785e+02 5.000303700411729437e+02 5.000616542895115799e+02 5.000662338785507472e+02 5.000019105822692609e+02 5.000096926560053703e+02 5.000891637931025571e+02 5.000304706829563770e+02 5.000217800580086873e+02 5.000919801853509625e+02 5.000197388206429991e+02 5.000772275698012663e+02 5.000685162422095118e+02 5.000332636889997957e+02 5.000322690093813662e+02 5.000467419370825155e+02 5.000677607471858437e+02 5.000117324148230296e+02 5.000811756464419204e+02 5.000623284169419094e+02 5.000078296762891910e+02 5.000617444195405028e+02 5.000200946100237616e+02 5.000726512884139652e+02 5.000991143140717554e+02 5.000866548098387625e+02 5.000790427588737543e+02 5.000124257204328160e+02 5.000410499007013527e+02 5.000217448768570421e+02 5.000662982581324059e+02 5.000223781562201566e+02 5.000740859012864235e+02 5.000081742770334472e+02 5.000801925629746734e+02 3.011747125939388120e-02
1.635745299181923240e-03 5.000025168383776304e+02 5.000788120135709960e+02 5.000613281431813562e+02 5.000915601058800348e+02 5.000011849629260610e+02 5.000776733740735835e+02 5.000090763818941468e+02 5.000946821085723286e+02 5.000274715224001625e+02 5.000148916290190186e+02 5.000337070171831897e+02 5.000118880169999898e+02 5.000782221932633433e+02 5.000495059105817290e+02 5.000167513284184224e+02 5.000726164574865606e+02 5.000751790001998529e+02 5.000313052098680942e+02 5.000494006042852106e+02 5.000528815447307807e+02 5.000164289257131145e+02 5.000251391863918684e+02 5.000798284404214087e+02 5.000511123484159839e+02 5.000007710911310141e+02 5.000138339474623308e+02 5.000875467675110713e+02 5.000517081299450410e+02 5.000557175307234843e+02 5.000130006542697174e+02 5.000019666582010700e+02 5.000209092862841089e+02 5.000473259954083574e+02 5.000205200136830399e+02 5.000610340936729017e+02 5.000812793837862387e+02 5.000647591049355469e+02 5.000865075867118890e+02 5.000093899712716734e+02 5.000719870500171282e+02 5.000635371346246529e+02 5.000355417584843849e+02 5.000142926537367885e+02 5.000144252160473570e+02 5.000363881129030119e+02 5.000879456837741373e+02 5.000802217348753516e+02 5.000945566346778719e+02 5.000683628180401570e+02 5.000923621818642459e+02 5.000242773916900205e+02 5.000688068444721921e+02 5.000754314835598393e+02 5.000900708430573900e+02 5.000222588312299763e+02 5.000768146481129861e+02 5.000119769753654282e+02 5.000311490684183013e+02 5.000384079699508675e+02 5.000808106802885504e+02 5.000607436687226368e+02 5.000302370125609173e+02 5.000178402052852107e+02 5.000448560801453937e+02 5.000790436909030632e+02 5.000787612614650470e+02 5.000271304569391759e+02 5.000146986489781398e+02 5.000197027511155170e+02 5.000386679431886705e+02 5.000721212465919052e+02 5.000457132282417092e+02 5.000880567522484057e+02 5.000992437266748425e+02 5.000856265912431127e+02 5.000945792918004145e+02 5.000303574024700310e+02 5.000509113621531014e+02 5.000140089023681753e+02 5.000184628428812630e+02 5.000330357684675278e+02 5.000805199837637360e+02 5.000362156949271366e+02 5.000569096218040954e+02 5.000839953762586561e+02 5.000979968268176776e+02 5.000703265969152085e+02 5.000924407732937311e+02 5.000701035255068518e+02 5.000385344660360829e+02 5.000552374567952825e+02 5.000917531714944175e+02 5.000900428281486256e+02 5.000957511203866943e+02 5.000135490172951904e+02 5.000732588806508261e+02 5.000292217375692303e+02 5.000900462956295769e+02 8.669989021825729933e-03
5.698989289559953930e-02 5.000470271696215718e+02 5.000326443868526667e+02 5.000548797562161099e+02 5.000313961310574769e+02 5.000214960414484722e+02 5.000389427304369292e+02 5.000333213537545589e+02 5.000891244687986728e+02 5.000152362831955202e+02 5.000115320598595190e+02 5.000126425866428121e+02 5.000150339631268253e+02 5.000516413346827562e+02 5.000307183774100395e+02 5.000489316976928649e+02 5.000031249578841539e+02 5.000250654350717241e+02 5.000470293467522538e+02 5.000905255568702614e+02 5.000686546293281367e+02 5.000220758414976103e+02 5.000602778061929143e+02 5.000538226945624274e+02 5.000142834999897445e+02 5.000722117274755192e+02 5.000269832421658407e+02 5.000707255824708000e+02 5.000476771327656706e+02 5.000051811173687497e+02 5.000339205739528552e+02 5.000801390258335459e+02 5.000011341583093554e+02 5.000547303848297815e+02 5.000943637856587429e+02 5.000772607167455703e+02 5.000416913016057379e+02 5.000342777060436106e+02 5.000519187355151871e+02 5.000323729453382384e+02 5.000999739765505865e+02 5.000328333452643506e+02 5.000174571185611399e+02 5.000682805604852774e+02 5.000532673502380590e+02 5.000416125284162945e+02 5.000592018849047236e+02 5.000879744282281081e+02 5.000271722118931166e+02 5.000876383158102385e+02 5.000336791085213122e+02 5.000005899268400071e+02 5.000287860676777996e+02 5.000770756930243124e+02 5.000550963959154842e+02 5.000622831341406709e+02 5.000177435498710565e+02 5.000195216620127212e+02 5.000405276456708066e+02 5.000677017455973896e+02 5.000424638079274473e+02 5.000771620051175432e+02 5.000254337934470072e+02 5.000354011830427226e+02 5.000631566362396256e+02 5.000706176813547472e+02 5.000441339070185336e+02 5.000237876670320816e+02 5.000182040020522436e+02 5.000564345517014431e+02 5.000253899625636791e+02 5.000151842203792398e+02 5.000625456501655890e+02 5.000954198005966305e+02 5.000522315921935501e+02 5.000964085178560481e+02 5.000777316543332631e+02 5.000488032764484387e+02 5.000619947208465987e+02 5.000766047934485528e+02 5.000134127158803494e+02 5.000211514808944457e+02 5.000434376473410225e+02 5.000389898985416721e+02 5.000676925630487517e+02 5.000367093793061599e+02 5.000033916367140705e+02 5.000126542904904454e+02 5.000534865818684693e+02 5.000563630688115495e+02 5.000018119027713510e+02 5.000958739437030545e+02 5.000776719801213517e+02 5.000074913097855074e+02 5.000549078482116556e+02 5.000688271807058527e+02 5.000300121740869486e+02 5.000036469244185469e+02 5.000219767535414803e+02 2.763774793995702611e-02
9.210609827851935771e-02 5.000657427225171432e+02 5.000654669518222022e+02 5.000742697486825818e+02 5.000172392216354069e+02 5.000112588465190129e+02 5.000222505048798212e+02 5.000602212455949598e+02 5.000713049114075943e+02 5.000252231258555753e+02 5.000756589744442522e+02 5.000511087870639244e+02 5.000179628479843927e+02 5.000345789156182263e+02 5.000760976610229704e+02 5.000452215811631049e+02 5.000895544456543007e+02 5.000645623456135809e+02 5.000479026764721198e+02 5.000215063335425612e+02 5.000977097011679007e+02 5.000936278579891336e+02 5.000710150855405232e+02 5.000703894130516574e+02 5.000285501028400290e+02 5.000841449632534932e+02 5.000138772225453749e+02 5.000433411470555143e+02 5.000353705220587699e+02 5.000597738684476781e+02 5.000600157285363707e+02 5.000845471420195167e+02 5.000900241115932090e+02 5.000567357587544848e+02 5.000468365662427459e+02 5.000108400193336138e+02 5.000175223805428573e+02 5.000295948677932643e+02 5.000582697165194759e+02 5.000413171151968186e+02 5.000918264659454735e+02 5.000885332134516261e+02 5.000687025508956367e+02 5.000027475769838361e+02 5.000887552936342786e+02 5.000706336830000396e+02 5.000168570536924904e+02 5.000604377554726057e+02 5.000994977126221102e+02 5.000612627829339090e+02 5.000841515315416359e+02 5.000712584737754014e+02 5.000654263704913092e+02 5.000387201426184447e+02 5.000925454400595527e+02 5.000519822793223170e+02 5.000811850953124349e+02 5.000375765825062331e+02 5.000483821344570288e+02 5.000432000472938512e+02 5.000095646832578495e+02 5.000388569460280337e+02 5.000958164035429263e+02 5.000569721872438436e+02 5.000099670204015752e+02 5.000483554435182896e+02 5.000371415347402149e+02 5.000594078239620899e+02 5.000695716019111501e+02 5.000674028297172526e+02 5.000790393907707880e+02 5.000922198619254573e+02 5.000329270261740930e+02 5.000551627830231496e+02 5.000937415477669674e+02 5.000645620622502747e+02 5.000710331749779698e+02 5.000236142425259800e+02 5.000597027247682149e+02 5.000157356728174705e+02 5.000728255200672265e+02 5.000717082389246571e+02 5.000651028848929514e+02 5.000845179861584029e+02 5.000646274534246913e+02 5.000863909939631640e+02 5.000413629619986295e+02 5.000207383808563577e+02 5.000476635516764645e+02 5.000486622313052294e+02 5.000597260727748221e+02 5.000310972927466082e+02 5.000507663014398076e+02 5.000829378297679000e+02 5.000212471211255547e+02 5.000957666454397668e+02 5.000185443330040584e+02 5.000202438548321311e+02 5.000142860309531443e+02 4.611053559370651561e-02
1.347141641901827835e-02 5.000388796609455540e+02 5.000495507816952454e+02 5.000726360552775986e+02 5.000299453830785978e+02 5.000987738370281477e+02 5.000631014948838242e+02 5.000785792363114979e+02 5.000307706555856271e+02 5.000662400225107262e+02 5.000550849864758334e+02 5.000067862673557784e+02 5.000467286404822289e+02 5.000992886418945886e+02 5.000751568975178429e+02 5.000562905711747135e+02 5.000778543208585916e+02 5.000604216424054016e+02 5.000340028328919857e+02 5.000506901970949798e+02 5.000182502326231315e+02 5.000119424804256596e+02 5.000633388657988689e+02 5.000867501624756528e+02 5.000370743005283316e+02 5.000007855903563154e+02 5.000526885302418236e+02 5.000956636635397103e+02 5.000123428464542599e+02 5.000068078263376492e+02 5.000380460150226440e+02 5.000058108233087069e+02 5.000859012792477074e+02 5.000295351940261526e+02 5.000370210726436540e+02 5.000359830385573900e+02 5.000784733072305244e+02 5.000579439208045756e+02 5.000781084775211411e+02 5.000365044574174362e+02 5.000448916581640333e+02 5.000373185894499670e+02 5.000371364129179597e+02 5.000466438457008849e+02 5.000435341384398953e+02 5.000297237441362199e+02 5.000207383194122031e+02 5.000984851441908177e+02 5.000360495921155461e+02 5.000915725479505909e+02 5.000085051220265200e+02 5.000419196710202527e+02 5.000986625864418897e+02 5.000690239665727859e+02 5.000911064852179493e+02 5.000149291322331351e+02 5.000964839994647377e+02 5.000367752967436559e+02 5.000537989513414345e+02 5.000289045531137617e+02 5.000529522649084697e+02 5.000530644235917066e+02 5.000331019517679465e+02 5.000997945730305219e+02 5.000841196165335987e+02 5.000992700649554195e+02 5.000006625551352499e+02 5.000961197239881244e+02 5.000113618495019523e+02 5.000037203951649758e+02 5.000670650331393290e+02 5.000111301232609549e+02 5.000687468674138927e+02 5.000203299962892629e+02 5.000150362117314558e+02 5.000313319234751361e+02 5.000540941729082078e+02 5.000568063048803538e+02 5.000650615686837455e+02 5.000000075744017636e+02 5.000316131752902038e+02 5.000986995558489525e+02 5.000816252387677423e+02 5.000049327685972571e+02 5.000862765638404426e+02 5.000616323319760568e+02 5.000907989164979313e+02 5.000608574522761387e+02 5.000434167986092007e+02 5.000528977967749711e+02 5.000294670500539382e+02 5.000428349914708974e+02 5.000130364876501972e+02 5.000821826707428954e+02 5.000761530488026665e+02 5.000978964931488235e+02 5.000991563152013555e+02 5.000790783268097925e+02 5.000342082212732180e+02 7.111820970914953244e-02
3.376390202352421571e-02 5.000541461727013939e+02 5.000217154092806027e+02 5.000527738607372612e+02 5.000772319993486121e+02 5.000620792911937542e+02 5.000182362194598227e+02 5.000330474822670794e+02 5.000929591455047785e+02 5.000573487190890205e+02 5.000995125504147722e+02 5.000847377246991527e+02 5.000447429002381341e+02 5.000212985756179478e+02 5.000178644675169721e+02 5.000354675094581012e+02 5.000860203119036669e+02 5.000862642637059139e+02 5.000820920095119959e+02 5.000680872773259011e+02 5.000939340462612108e+02 5.000384472436506940e+02 5.000693499366084325e+02 5.000976095910813228e+02 5.000204695265226746e+02 5.000284558146817062e+02 5.000648715552124486e+02 5.000859811754093016e+02 5.000209153407340636e+02 5.000688872260134872e+02 5.000855671855058517e+02 5.000667612747046746e+02 5.000388446360688022e+02 5.000446418499147967e+02 5.000690513324835251e+02 5.000671364401733285e+02 5.000963074304438010e+02 5.000828895267555936e+02 5.000391418932728129e+02 5.000680305567012738e+02 5.000316582987192078e+02 5.000076727479170131e+02 5.000267438698598994e+02 5.000608931632630743e+02 5.000794716732042957e+02 5.000508871037037579e+02 5.000674799336993033e+02 5.000680059267652950e+02 5.000034461219316313e+02 5.000689373796432733e+02 5.000930880653805843e+02 5.000211117382111183e+02 5.000555577767226509e+02 5.000107484086516934e+02 5.000305797622935415e+02 5.000447333381192152e+02 5.000353784083231972e+02 5.000065363585952127e+02 5.000682784624169130e+02 5.000834416313547877e+02 5.000085150909879417e+02 5.000195679145845133e+02 5.000546943335891115e+02 5.000303447728846891e+02 5.000864366466882984e+02 5.000473383320090761e+02 5.000824603399633475e+02 5.000174834492456171e+02 5.000509182935710442e+02 5.000586303782029063e+02 5.000665221561135354e+02 5.000611555864589945e+02 5.000258132712006613e+02 5.000561461890313808e+02 5.000949218377368766e+02 5.000113651784146782e+02 5.000230212614567904e+02 5.000194122844997082e+02 5.000027145868728553e+02 5.000166698468760842e+02 5.000606720197126833e+02 5.000144916088184459e+02 5.000210601875767225e+02 5.000122365093620260e+02 5.000354932312665710e+02 5.000097293777409959e+02 5.000160333746970878e+02 5.000135376753947298e+02 5.000494622358628476e+02 5.000553431884933957e+02 5.000758212233031372e+02 5.000940380376887333e+02 5.000514785139646392e+02 5.000280408676329102e+02 5.000949029474235772e+02 5.000611348860313683e+02 5.000763721662864896e+02 5.000837896635113680e+02 5.000161415335946344e+02 5.128019001147482436e-02
1.961704154390183502e-02 5.000547705375175838e+02 5.000202536013453027e+02 5.000183280791519564e+02 5.000474620701157278e+02 5.000096345566209379e+02 5.000332772222142239e+02 5.000280462232104242e+02 5.000653779561051238e+02 5.000953823962144611e+02 5.000820162754333182e+02 5.000260869061624476e+02 5.000381844525948623e+02 5.000187704093553407e+02 5.000659481007091358e+02 5.000894954625976538e+02 5.000175275567157769e+02 5.000627436754052155e+02 5.000797340555951109e+02 5.000303466992393169e+02 5.000434078917525085e+02 5.000338338205494892e+02 5.000918116426167330e+02 5.000497553812912770e+02 5.000973178248202089e+02 5.000469457178496668e+02 5.000807149797555553e+02 5.000689410265655397e+02 5.000134267802480394e+02 5.000149717863365026e+02 5.000827007101944446e+02 5.000458093400243342e+02 5.000453140775421161e+02 5.000833886094199556e+02 5.000653237122822929e+02 5.000113112583125030e+02 5.000820399246456418e+02 5.000591909644286943e+02 5.000146408876416899e+02 5.000252359443824162e+02 5.000513896315643478e+02 5.000196233304560565e+02 5.000310352009996109e+02 5.000395511228808800e+02 5.000598980260784856e+02 5.000082898528837063e+02 5.000619003680070023e+02 5.000480864112645918e+02 5.000956222407564269e+02 5.000241418916621114e+02 5.000038308302000019e+02 5.000222611293440309e+02 5.000723277703264671e+02 5.000775768045400582e+02 5.000897507485036044e+02 5.000214234205917023e+02 5.000770793705183337e+02 5.000394616076466718e+02 5.000012939080287424e+02 5.000454057595673021e+02 5.000362005018066611e+02 5.000626674490297319e+02 5.000258835247150273e+02 5.000165057623734697e+02 5.000611117899446185e+02 5.000780587674723279e+02 5.000225416028191603e+02 5.000443686729423689e+02 5.000726880513158790e+02 5.000075293513789916e+02 5.000488857258530970e+02 5.000383678844064548e+02 5.000163016034950942e+02 5.000339955121055482e+02 5.000195620451898435e+02 5.000862700579459670e+02 5.000899997236475087e+02 5.000004437027853896e+02 5.000490253281865876e+02 5.000538232407905070e+02 5.000397304616677161e+02 5.000683835338569452e+02 5.000931594552486104e+02 5.000404999789943190e+02 5.000046043863482055e+02 5.000599265889916296e+02 5.000393173919401306e+02 5.000077280663713282e+02 5.000058868852408978e+02 5.000440142863589585e+02 5.000239650227988477e+02 5.000478146381126408e+02 5.000009905958994523e+02 5.000602554637812318e+02 5.000045929286142155e+02 5.000866007969309521e+02 5.000579088832546404e+02 5.000209053512327273e+02 5.000900211381667759e+02 6.065795378920753322e-02
1.157265254896681049e-02 5.000981548643371752e+02 5.000103084949523691e+02 5.000961873585578701e+02 5.000592243916053690e+02 5.000087907449940872e+02 5.000043517163144315e+02 5.000704808903012122e+02 5.000680555979857900e+02 5.000270311189185577e+02 5.000687516843291860e+02 5.000210516166450816e+02 5.000819381153244194e+02 5.000318791904601312e+02 5.000302704986664821e+02 5.000155012787158739e+02 5.000384469842252315e+02 5.000318322616519140e+02 5.000587609543321150e+02 5.000827181751527633e+02 5.000226981065896439e+02 5.000372577786349098e+02 5.000562953190598137e+02 5.000335027641870056e+02 5.000163653999211419e+02 5.000267306042911173e+02 5.000491708852284205e+02 5.000666552856320095e+02 5.000208355250081240e+02 5.000591107994209779e+02 5.000706313205447486e+02 5.000203119856348621e+02 5.000166069513836078e+02 5.000673728259036466e+02 5.000560698371359081e+02 5.000280085420284308e+02 5.000516804926697887e+02 5.000532624899029770e+02 5.000922475095716209e+02 5.000115533682158571e+02 5.000745894656042765e+02 5.000609203195087389e+02 5.000023848009182075e+02 5.000844749117774768e+02 5.000166425299348703e+02 5.000793073232977690e+02 5.000841473030277484e+02 5.000747212792466598e+02 5.000254227201100434e+02 5.000659643975801600e+02 5.000150224174226423e+02 5.000598678253015805e+02 5.000085646856338712e+02 5.000161182579373644e+02 5.000534402311690769e+02 5.000665261217134230e+02 5.000585293659672743e+02 5.000755060198878823e+02 5.000513179016384697e+02 5.000326514267364928e+02 5.000331181122720636e+02 5.000368134496558241e+02 5.000262999017625702e+02 5.000812581913177723e+02 5.000568422656171492e+02 5.000595902792542233e+02 5.000152384377009867e+02 5.000705007092346364e+02 5.000832330918152593e+02 5.000108936408684599e+02 5.000373200037177526e+02 5.000883708317203968e+02 5.000675185682405299e+02 5.000342647423796620e+02 5.000208031425051445e+02 5.000268203869139256e+02 5.000142452614277886e+02 5.000714475906929124e+02 5.000980107518481645e+02 5.000376462335806309e+02 5.000004412405055518e+02 5.000606038982410837e+02 5.000364916840458704e+02 5.000138743290421530e+02 5.000668932633220152e+02 5.000737059631222223e+02 5.000138038870765058e+02 5.000043441637679393e+02 5.000681034337812889e+02 5.000856293722734449e+02 5.000622802546196226e+02 5.000231508769971924e+02 5.000829455177019440e+02 5.000932997599170449e+02 5.000210399141422499e+02 5.000272523365543975e+02 5.000450858517675670e+02 5.000084095750723350e+02 5.000602156669854139e+02 2.177264016224281923e-02
9.279557543192666624e-02 5.000715134997217319e+02 5.000774131628314194e+02 5.000890548340760802e+02 5.000970989896871970e+02 5.000903034898857982e+02 5.000891121217407544e+02 5.000391801299476242e+02 5.000838169473565245e+02 5.000263797080183963e+02 5.000321450394803833e+02 5.000624461218382066e+02 5.000643325645491473e+02 5.000610194537048301e+02 5.000166893853442502e+02 5.000989357691632904e+02 5.000237604441418284e+02 5.000605772014570789e+02 5.000048435283368917e+02 5.000192283068478787e+02 5.000635087158493093e+02 5.000487985460041500e+02 5.000934325054921601e+02 5.000592032796300828e+02 5.000453806688512373e+02 5.000806797054495973e+02 5.000685693574716879e+02 5.000950492538834737e+02 5.000968266476778012e+02 5.000863472801095213e+02 5.000149580203432720e+02 5.000893236885322040e+02 5.000285245416332600e+02 5.000898008684891920e+02 5.000469204889383263e+02 5.000742938143023935e+02 5.000926026131480739e+02 5.000281932137415879e+02 5.000214149854496668e+02 5.000208591386049193e+02 5.000254529031103061e+02 5.000399182190247984e+02 5.000147621625780516e+02 5.000716721327212326e+02 5.000881898837146196e+02 5.000438152424302984e+02 5.000432047547103025e+02 5.000464248942469112e+02 5.000401163424536435e+02 5.000427846962260219e+02 5.000654975951590018e+02 5.000930989928309600e+02 5.000685978737682831e+02 5.000002902040996560e+02 5.000677923538042364e+02 5.000762198287994806e+02 5.000996000134206838e+02 5.000827775877683621e+02 5.000085091926777636e+02 5.000737452295355752e+02 5.000368272698882492e+02 5.000830032570183903e+02 5.000778934423577766e+02 5.000495826631340037e+02 5.000522545467981104e+02 5.000045555619366837e+02 5.000425147244188224e+02 5.000584280823073300e+02 5.000700308889203143e+02 5.000089475559838093e+02 5.000240246573778222e+02 5.000699018563935283e+02 5.000191280567295848e+02 5.000222864285721585e+02 5.000134146604804073e+02 5.000903430521381097e+02 5.000113474075199633e+02 5.000475231597876586e+02 5.000609121835923361e+02 5.000621717021341510e+02 5.000978299641936928e+02 5.000420262826964404e+02 5.000345139494054365e+02 5.000199188684113096e+02 5.000735265746302503e+02 5.000453623332949178e+02 5.000517891182675498e+02 5.000542239080327818e+02 5.000099937878720766e+02 5.000280566766369361e+02 5.000354099454512493e+02 5.000626042134070417e+02 5.000309632651798779e+02 5.000466154246649921e+02 5.000833496040733053e+02 5.000418588174603087e+02 5.000903114600921526e+02 5.000254747854180550e+02 5.000863668485741869e+02 1.894923818604898891e-02
5.761017691059440449e-02 5.000765533700704282e+02 5.000207940467913659e+02 5.000886685819924082e+02 5.000338168123846003e+02 5.000145443106845278e+02 5.000873514172233172e+02 5.000814215322471910e+02 5.000428057336011989e+02 5.000048126055372109e+02 5.000298064012900454e+02 5.000640497367863873e+02 5.000731116955964808e+02 5.000458717006306415e+02 5.000260574178813044e+02 5.000686403915712503e+02 5.000147347451947439e+02 5.000580636895138582e+02 5.000272415081144004e+02 5.000760782603948655e+02 5.000868991154127912e+02 5.000877703727224457e+02 5.000443419937652720e+02 5.000521751560845019e+02 5.000886803112697976e+02 5.000543713704801689e+02 5.000602254020056421e+02 5.000432128146823061e+02 5.000865981677985133e+02 5.000633708462472100e+02 5.000857391123313960e+02 5.000412368877802578e+02 5.000918603827310562e+02 5.000249741640602679e+02 5.000579910647279576e+02 5.000901986939413746e+02 5.000959743016774723e+02 5.000869734179425450e+02 5.000468857444199102e+02 5.000527767480015200e+02 5.000200934108368642e+02 5.000849089517171251e+02 5.000093513881245713e+02 5.000699152725292151e+02 5.000501203123857863e+02 5.000477519181033585e+02 5.000851103218737990e+02 5.000405464871438994e+02 5.000359874438601082e+02 5.000000252850612128e+02 5.000546983891786113e+02 5.000122947829516988e+02 5.000871178906538148e+02 5.000353108083559732e+02 5.000149116010521766e+02 5.000606074521375604e+02 5.000745843747612867e+02 5.000271836320856664e+02 5.000268005439379522e+02 5.000314231587966560e+02 5.000076162963463275e+02 5.000252023238105608e+02 5.000081409438195692e+02 5.000768695478735140e+02 5.000463802547634486e+02 5.000108344272035197e+02 5.000703813949769483e+02 5.000837519886875384e+02 5.000692464402092696e+02 5.000063029345610062e+02 5.000560166901161665e+02 5.000412367804385099e+02 5.000231105222731003e+02 5.000136917463473196e+02 5.000790117823302126e+02 5.000116693146644593e+02 5.000163525536873408e+02 5.000100178771949118e+02 5.000597302335950189e+02 5.000246601206628156e+02 5.000902093302836420e+02 5.000548636907088280e+02 5.000146466774478995e+02 5.000341299603865082e+02 5.000041096511151295e+02 5.000993182848102379e+02 5.000607045607232521e+02 5.000469280529138132e+02 5.000884031105543386e+02 5.000299700462300052e+02 5.000100322433798965e+02 5.000228262067200262e+02 5.000958886572284428e+02 5.000795988199789122e+02 5.000747602503963094e+02 5.000616426209774659e+02 5.000877693657867553e+02 5.000199835713790435e+02 5.000605297149366493e+02 8.341927387507543090e-02
6.143988739078019151e-02 5.000997271088680804e+02 5.000647846838155033e+02 5.000658887636378722e+02 5.000653730922384170e+02 5.000111819573516527e+02 5.000391293906563988e+02 5.000395461994704647e+02 5.000815863461099298e+02 5.000514580401715534e+02 5.000988522199191380e+02 5.000483059247656001e+02 5.000688916967747559e+02 5.000202458134243102e+02 5.000538757688156011e+02 5.000671409137354431e+02 5.000603979376152779e+02 5.000818301898970049e+02 5.000394476071872418e+02 5.000684475928647998e+02 5.000515232049422139e+02 5.000971926514076813e+02 5.000349270785057456e+02 5.000377581318436455e+02 5.000517153350429567e+02 5.000272774957547313e+02 5.000054065996867507e+02 5.000371462927849393e+02 5.000410337440756052e+02 5.000916145494636567e+02 5.000067692472147201e+02 5.000230506983563714e+02 5.000537320824346921e+02 5.000025458915583272e+02 5.000590408752338476e+02 5.000077364834791069e+02 5.000760904967852412e+02 5.000732153878680037e+02 5.000017107949151409e+02 5.000936952082760172e+02 5.000014155506073052e+02 5.000172612176613143e+02 5.000319950140283822e+02 5.000582585898027332e+02 5.000942091098635274e+02 5.000661944456243759e+02 5.000634370760374168e+02 5.000739025809692180e+02 5.000309891841490071e+02 5.000738449698534964e+02 5.000860235651467747e+02 5.000236588905267467e+02 5.000448237946075096e+02 5.000963439860350377e+02 5.000720196654451684e+02 5.000074753212642236e+02 5.000715712678296541e+02 5.000223607322102453e+02 5.000143778978598448e+02 5.000751624839533065e+02 5.000595288308382464e+02 5.000056002905227501e+02 5.000129165729388205e+02 5.000240361867349748e+02 5.000821558384936338e+02 5.000472024094989933e+02 5.000622202744262950e+02 5.000316277292226346e+02 5.000489507045786013e+02 5.000346918912528054e+02 5.000094763056798683e+02 5.000085601176239152e+02 5.000332606034480136e+02 5.000374912869119726e+02 5.000659487600341890e+02 5.000515624796101406e+02 5.000498937794981202e+02 5.000969166534973169e+02 5.000770368865798901e+02 5.000924013628816169e+02 5.000383747403666348e+02 5.000431120127381064e+02 5.000721982007510746e+02 5.000941631183289928e+02 5.000772576847567166e+02 5.000968383499861716e+02 5.000480919084980655e+02 5.000870086271903574e+02 5.000054202902575753e+02 5.000907602279137905e+02 5.000930246317628871e+02 5.000256074151668599e+02 5.000577721330914187e+02 5.000324019176942443e+02 5.000029192752986660e+02 5.000011332414428580e+02 5.000764013421705840e+02 5.000024251005281712e+02 5.000587531294263499e+02 7.831611074704691866e-02
8.661755544491242520e-02 5.000215323923981146e+02 5.000271292091492796e+02 5.000149054522731262e+02 5.000400222075152783e+02 5.000718284905300948e+02 5.000265139282436735e+02 5.000564517714884119e+02 5.000788754218518761e+02 5.000177499140855275e+02 5.000965732346617187e+02 5.000573801048486757e+02 5.000849940501677224e+02 5.000672373397093224e+02 5.000897255253356093e+02 5.000993832313034204e+02 5.000498210886302104e+02 5.000974524222860396e+02 5.000560760285019342e+02 5.000402780849061628e+02 5.000130342271472728e+02 5.000645226390305425e+02 5.000572634647953691e+02 5.000802646554917033e+02 5.000009952235400306e+02 5.000212661253310671e+02 5.000759244679983908e+02 5.000958578595697759e+02 5.000660579787208917e+02 5.000531178276374362e+02 5.000557807994898667e+02 5.000370991423554301e+02 5.000172957912664629e+02 5.000672432291169685e+02 5.000599501464949981e+02 5.000015758131116854e+02 5.000820870208732458e+02 5.000300809926692409e+02 5.000546649748852701e+02 5.000060616934807740e+02 5.000650462127978813e+02 5.000984849805135468e+02 5.000104524228381138e+02 5.000747576553170006e+02 5.000496518113488378e+02 5.000657973208514591e+02 5.000051641713970980e+02 5.000024985781648184e+02 5.000892888102645202e+02 5.000609822973418090e+02 5.000287093122535680e+02 5.000851632950902399e+02 5.000218048867955645e+02 5.000422935984800006e+02 5.000615298111442826e+02 5.000861117655426256e+02 5.000712151082695414e+02 5.000652584254550561e+02 5.000079642613548572e+02 5.000914913429045328e+02 5.000444298451982377e+02 5.000527344441457558e+02 5.000320218227778923e+02 5.000756827336541050e+02 5.000349173579658668e+02 5.000584587007094797e+02 5.000866284742308494e+02 5.000397108213309139e+02 5.000140190513149605e+02 5.000498896852684538e+02 5.000510156812601394e+02 5.000850180891960690e+02 5.000108698290064240e+02 5.000128822952571568e+02 5.000391330862770474e+02 5.000676763411860861e+02 5.000315403040672777e+02 5.000254945548368255e+02 5.000838652248040717e+02 5.000844381483534562e+02 5.000162259873910671e+02 5.000641512418800971e+02 5.000229698810392165e+02 5.000237628110173773e+02 5.000902892454032553e+02 5.000299311837098912e+02 5.000443488588093146e+02 5.000981183331277862e+02 5.000993617994276974e+02 5.000704607370632289e+02 5.000751366433680118e+02 5.000583255002098326e+02 5.000231312296277224e+02 5.000813614152416449e+02 5.000594884842545298e+02 5.000159255454507274e+02 5.000423810006097369e+02 5.000253044835154697e+02 5.000911784691299999e+02 5.957945874493564276e-02
2.185676900312675391e-02 5.000991695482204022e+02 5.000385629619135557e+02 5.000467216711506353e+02 5.000033645623465191e+02 5.000874952761545273e+02 5.000465722239767388e+02 5.000027137315337882e+02 5.000525646137951981e+02 5.000832763423676397e+02 5.000734991512460397e+02 5.000499504292671986e+02 5.000920289226216369e+02 5.000282285112216982e+02 5.000750554748635750e+02 5.000180620146187493e+02 5.000595151168151347e+02 5.000517446404314796e+02 5.000966468276269552e+02 5.000162788195628423e+02 5.000303182164214491e+02 5.000569706768710034e+02 5.000068839852424958e+02 5.000684238660036272e+02 5.000197250782620699e+02 5.000170092710006315e+02 5.000526000824978041e+02 5.000704899706513515e+02 5.000115386272176465e+02 5.000293974109754913e+02 5.000809279244942900e+02 5.000713270807738695e+02 5.000228985454916142e+02 5.000088829517646900e+02 5.000857661242694121e+02 5.000268915460932817e+02 5.000863743517011812e+02 5.000238455275724618e+02 5.000071230206434052e+02 5.000524343353358177e+02 5.000958756827167804e+02 5.000191094246670787e+02 5.000775037408604362e+02 5.000016137054079195e+02 5.000396678427188135e+02 5.000956642382675454e+02 5.000514079568445709e+02 5.000833685614706496e+02 5.000954539982017764e+02 5.000834163900902922e+02 5.000823498313897062e+02 5.000337353161291389e+02 5.000992964566726187e+02 5.000134852968256496e+02 5.000323159559878263e+02 5.000412294262696378e+02 5.000899385713537981e+02 5.000762277401993856e+02 5.000825179375949006e+02 5.000905168072773108e+02 5.000846541818046376e+02 5.000735499166784166e+02 5.000404866786259959e+02 5.000667791849660375e+02 5.000471324617932396e+02 5.000631295150655546e+02 5.000507199258735795e+02 5.000925095235747904e+02 5.000386712329582792e+02 5.000486857410861603e+02 5.000465515911712373e+02 5.000769836895392473e+02 5.000261906084571137e+02 5.000941640750854731e+02 5.000178794341142634e+02 5.000572521220838667e+02 5.000009712316896184e+02 5.000200026365598092e+02 5.000140267157514131e+02 5.000914565856438685e+02 5.000122525121167882e+02 5.000519050848147913e+02 5.000334299538556024e+02 5.000342384798371427e+02 5.000167862829877663e+02 5.000331301305611191e+02 5.000886162964907840e+02 5.000605126321917737e+02 5.000400621974665114e+02 5.000525380676043028e+02 5.000143127562131440e+02 5.000261120155668664e+02 5.000953212746279064e+02 5.000220983372785781e+02 5.000742630523969865e+02 5.000810990160432539e+02 5.000825780838259220e+02 5.000305273935566106e+02 5.000959991681149290e+02 2.394016282083850575e-02
1.399754622417326289e-02 5.000350717394928211e+02 5.000033701985265679e+02 5.000417235104366682e+02 5.000317999495047161e+02 5.000070963329738447e+02 5.000355970778207961e+02 5.000054076255278801e+02 5.000563083055355378e+02 5.000597174349308034e+02 5.000276654208992682e+02 5.000580968967688591e+02 5.000634478566921644e+02 5.000583121841875709e+02 5.000482864622096599e+02 5.000547039687658639e+02 5.000708299478332037e+02 5.000786708146138153e+02 5.000139400115340322e+02 5.000909774323385477e+02 5.000533189606375117e+02 5.000777994854700523e+02 5.000030003526533733e+02 5.000052318600780836e+02 5.000484780420412676e+02 5.000796116569003971e+02 5.000016152237615188e+02 5.000831888354686043e+02 5.000434097204512227e+02 5.000295645543955629e+02 5.000323834514730947e+02 5.000144213192257894e+02 5.000450481044634330e+02 5.000619106332836168e+02 5.000532336203460204e+02 5.000907935727370273e+02 5.000789281936968678e+02 5.000912954923658162e+02 5.000225593842023954e+02 5.000127444127592753e+02 5.000943036337909575e+02 5.000948246472283927e+02 5.000518628588242791e+02 5.000385422596431795e+02 5.000792481671960559e+02 5.000413072607433946e+02 5.000305408091946902e+02 5.000606445372612257e+02 5.000723281726877758e+02 5.000615842126214829e+02 5.000058042188663308e+02 5.000820685919425159e+02 5.000174969510809433e+02 5.000581451961809307e+02 5.000968357556006936e+02 5.000962246793488930e+02 5.000521432603190419e+02 5.000721447869754002e+02 5.000648991758793613e+02 5.000614041447404361e+02 5.000699192398624859e+02 5.000629136782572459e+02 5.000330521907782213e+02 5.000013055578201602e+02 5.000137620594883856e+02 5.000595241396873121e+02 5.000412796155600290e+02 5.000186650005765046e+02 5.000292785386159835e+02 5.000716287399731073e+02 5.000778382323204028e+02 5.000196770662901713e+02 5.000837471972702133e+02 5.000585608073993171e+02 5.000391829434782949e+02 5.000639327931403955e+02 5.000832398860986245e+02 5.000410181054846248e+02 5.000676504967831875e+02 5.000129727786589910e+02 5.000916928203276370e+02 5.000043317659919353e+02 5.000104367414751323e+02 5.000843201625735901e+02 5.000542724343114287e+02 5.000641551855164835e+02 5.000495844153604139e+02 5.000606240057735477e+02 5.000642916319202982e+02 5.000993106487869682e+02 5.000140534727049157e+02 5.000491947783304454e+02 5.000658614825029531e+02 5.000026425797643697e+02 5.000560692071357494e+02 5.000992342899186269e+02 5.000661238737131384e+02 5.000191165141153533e+02 5.000582872885938173e+02 5.238728345284702353e-02
8.409328479363717412e-02 5.000529045174166072e+02 5.000812313179104081e+02 5.000358351784300908e+02 5.000519577396818818e+02 5.000651866403605368e+02 5.000305925112187992e+02 5.000418005563008705e+02 5.000680900306545027e+02 5.000754906031625637e+02 5.000861849599101561e+02 5.000937605565788431e+02 5.000161362693259548e+02 5.000223298574906039e+02 5.000592260030495595e+02 5.000859453630092730e+02 5.000988637265151624e+02 5.000231311852705289e+02 5.000285942996426911e+02 5.000876206888121374e+02 5.000724863785432035e+02 5.000427275055592986e+02 5.000896478285035869e+02 5.000844504432297981e+02 5.000425799730316498e+02 5.000173474997810104e+02 5.000820432287418384e+02 5.000789480584456328e+02 5.000827648306370747e+02 5.000158897658066053e+02 5.000420786829150757e+02 5.000943066283425082e+02 5.000033971098203551e+02 5.000443482491955933e+02 5.000746376388127032e+02 5.000639592501592574e+02 5.000259273575958900e+02 5.000443876044216722e+02 5.000694770157953712e+02 5.000030237987089095e+02 5.000880457969809072e+02 5.000996164249473850e+02 5.000886209564271780e+02 5.000009523298527938e+02 5.000758888412506735e+02 5.000364442186211704e+02 5.000815007440214117e+02 5.000964730951635602e+02 5.000915468344813917e+02 5.000974371120396427e+02 5.000385184974063009e+02 5.000222403203573549e+02 5.000308733682792877e+02 5.000343461828076101e+02 5.000895118627908573e+02 5.000184237549115096e+02 5.000314109174346413e+02 5.000344828829844914e+02 5.000313338720481511e+02 5.000309730091482834e+02 5.000535072189024390e+02 5.000824514053399525e+02 5.000870122418650681e+02 5.000894097354388350e+02 5.000908094447932513e+02 5.000069847125183173e+02 5.000502526631520368e+02 5.000860402165734513e+02 5.000401519320539023e+02 5.000450107362060521e+02 5.000021737009392382e+02 5.000041780820912436e+02 5.000717807060077575e+02 5.000554280941700540e+02 5.000621955176721372e+02 5.000344130207013791e+02 5.000602444409288410e+02 5.000431995926861646e+02 5.000946379691656603e+02 5.000576010248256011e+02 5.000704258905867619e+02 5.000217503869636744e+02 5.000632254260510194e+02 5.000011411539770165e+02 5.000879805660266015e+02 5.000579980571720284e+02 5.000895929658174168e+02 5.000623880014087490e+02 5.000538486292409743e+02 5.000069444794395963e+02 5.000489858090757025e+02 5.000104192057864338e+02 5.000380910856385981e+02 5.000538461077849206e+02 5.000323756288672143e+02 5.000085082833730326e+02 5.000586268255011078e+02 5.000946781349616685e+02 5.000331185411931756e+02 1.860734509524113525e-02
4.338839538490053827e-02 5.000130448030284924e+02 5.000281420632686036e+02 5.000602925294150509e+02 5.000058959377192309e+02 5.000448800981368436e+02 5.000771189102978269e+02 5.000083494574556084e+02 5.000959544288075449e+02 5.000712389463947147e+02 5.000376213903733174e+02 5.000977640000537576e+02 5.000690844890579001e+02 5.000130405064898014e+02 5.000043444411500104e+02 5.000641073550754641e+02 5.000143806633001873e+02 5.000515175371374426e+02 5.000236902571023734e+02 5.000343032687675873e+02 5.000045754212533211e+02 5.000574365150293374e+02 5.000167813282673137e+02 5.000023949552947329e+02 5.000987626837671201e+02 5.000231483278905102e+02 5.000874133949475890e+02 5.000458119058025090e+02 5.000621764115406904e+02 5.000080050521949602e+02 5.000043376706445315e+02 5.000365369633579462e+02 5.000181375131397772e+02 5.000502859295444864e+02 5.000302652872791782e+02 5.000726809406412485e+02 5.000264669769523493e+02 5.000818411599371984e+02 5.000549003126358798e+02 5.000475801763604977e+02 5.000772503277630108e+02 5.000254577400970675e+02 5.000003723055087335e+02 5.000721940008695015e+02 5.000312353273073427e+02 5.000014867184751779e+02 5.000244687070152168e+02 5.000537285968321157e+02 5.000324180724959433e+02 5.000638636748224712e+02 5.000366682525259421e+02 5.000461481563048096e+02 5.000630779566741921e+02 5.000114758617793314e+02 5.000226143990047944e+02 5.000552829996402124e+02 5.000562823016205130e+02 5.000210613517390357e+02 5.000937919456601435e+02 5.000955065020916663e+02 5.000218968828265815e+02 5.000163506803606310e+02 5.000436288178790960e+02 5.000888143147909659e+02 5.000593569108242491e+02 5.000819280010109651e+02 5.000180596463615075e+02 5.000542215005583557e+02 5.000114645983300079e+02 5.000213571970321595e+02 5.000573561277881254e+02 5.000204115286463775e+02 5.000958367877337309e+02 5.000383094478411294e+02 5.000452675970800556e+02 5.000660575999554567e+02 5.000257856943989623e+02 5.000076734787968462e+02 5.000708245813956978e+02 5.000424221490843024e+02 5.000568959114172571e+02 5.000571986019541555e+02 5.000470809648598447e+02 5.000207193810039712e+02 5.000938510294542425e+02 5.000036508408555846e+02 5.000710965142995974e+02 5.000278182346082758e+02 5.000366608639373567e+02 5.000730511446041646e+02 5.000318917966364438e+02 5.000159923376659776e+02 5.000426620384163812e+02 5.000610025017726343e+02 5.000433829303184439e+02 5.000521763214544535e+02 5.000931207744750395e+02 5.000902620027564467e+02 5.000539138340736258e+02 1.108185834485849765e-02
2.145489084468809107e-02 5.000972074533776208e+02 5.000075532133431579e+02 5.000454507815052807e+02 5.000936932447695540e+02 5.000472939719090277e+02 5.000530601643885120e+02 5.000303528485473521e+02 5.000653058461946898e+02 5.000709770237892826e+02 5.000983391531233906e+02 5.000649781646187648e+02 5.000654644961321083e+02 5.000029651017151764e+02 5.000121204493060532e+02 5.000598243998258567e+02 5.000788333926488463e+02 5.000538247827089435e+02 5.000093589793445403e+02 5.000790924869006062e+02 5.000050849229124310e+02 5.000456719840672122e+02 5.000250432423256370e+02 5.000734089211580340e+02 5.000123011777665738e+02 5.000469753013290983e+02 5.000799214350517445e+02 5.000474436211141551e+02 5.000702017162618631e+02 5.000026842486338978e+02 5.000546530718492022e+02 5.000951192054049557e+02 5.000969187708305981e+02 5.000529433385312359e+02 5.000419150173812000e+02 5.000485806555104773e+02 5.000807685769432851e+02 5.000829664038389524e+02 5.000981061852101561e+02 5.000074534321331043e+02 5.000739881034725158e+02 5.000568856562526889e+02 5.000181241302869921e+02 5.000549691950586180e+02 5.000052639654151108e+02 5.000845386922704847e+02 5.000400668544605196e+02 5.000997660874171515e+02 5.000044746249738523e+02 5.000261126389009405e+02 5.000385882815733680e+02 5.000500140167994800e+02 5.000818991096956552e+02 5.000761446660358160e+02 5.000422899761882718e+02 5.000781145951087296e+02 5.000906714029658247e+02 5.000232189162067016e+02 5.000380019880320788e+02 5.000423684731119351e+02 5.000138444160493236e+02 5.000357513484942160e+02 5.000976518659688281e+02 5.000926538471509275e+02 5.000581900765423029e+02 5.000606700781719383e+02 5.000511119650622618e+02 5.000921019690014759e+02 5.000694881177578850e+02 5.000414923665808828e+02 5.000502823603557090e+02 5.000375249936005844e+02 5.000207393356737384e+02 5.000611160193880096e+02 5.000175238551761367e+02 5.000456217457298749e+02 5.000813696297624915e+02 5.000225227988375991e+02 5.000762867353785168e+02 5.000822092317710030e+02 5.000825956222811328e+02 5.000768927478446244e+02 5.000718253903652908e+02 5.000428261786275925e+02 5.000145388678214999e+02 5.000752966413151626e+02 5.000941395895719666e+02 5.000919584339804373e+02 5.000958105237132258e+02 5.000818750239785686e+02 5.000132771496143960e+02 5.000350067599171666e+02 5.000024072902479588e+02 5.000512374770095789e+02 5.000813411769782988e+02 5.000533461900680550e+02 5.000571347946239484e+02 5.000315994332476066e+02 5.000429745484345858e+02 2.717450045024239966e-02
9.461404608699376662e-02 5.000564758407172690e+02 5.000475871237146066e+02 5.000796990067122465e+02 5.000186462043926099e+02 5.000721200846516012e+02 5.000311954396858027e+02 5.000340606994399764e+02 5.000810942266377879e+02 5.000452138637452322e+02 5.000277881512237173e+02 5.000307418685683842e+02 5.000761044488269818e+02 5.000402541290659428e+02 5.000856606296527502e+02 5.000980270919438340e+02 5.000455309947095657e+02 5.000328966090801828e+02 5.000782239843748584e+02 5.000346842690149742e+02 5.000823648327120736e+02 5.000158157522141664e+02 5.000001585762177569e+02 5.000909939130729640e+02 5.000064228426250565e+02 5.000139063359536635e+02 5.000503202869252846e+02 5.000739317518749090e+02 5.000634626242912759e+02 5.000829313056868273e+02 5.000186301754715146e+02 5.000830082162245844e+02 5.000391462601935473e+02 5.000903646741858211e+02 5.000783261776322206e+02 5.000025025620263932e+02 5.000435975481360629e+02 5.000928329377202886e+02 5.000188593771637784e+02 5.000596298889141167e+02 5.000806723075340869e+02 5.000435055180873292e+02 5.000743011685829060e+02 5.000650594333994832e+02 5.000101798795563468e+02 5.000520751351565991e+02 5.000595596956687245e+02 5.000398841366762781e+02 5.000779596796662076e+02 5.000579990672583222e+02 5.000818508169223264e+02 5.000649483595707920e+02 5.000060572457642252e+02 5.000253781730580727e+02 5.000575080395942109e+02 5.000339984568383898e+02 5.000311584587162770e+02 5.000282205084338898e+02 5.000247154569552208e+02 5.000083321069081990e+02 5.000405431876545208e+02 5.000260662803516993e+02 5.000851262952672869e+02 5.000043906573629329e+02 5.000358555042009243e+02 5.000842953234026140e+02 5.000893008121786920e+02 5.000852550150693787e+02 5.000260289575007846e+02 5.000219438005458414e+02 5.000653334579666307e+02 5.000280422269477754e+02 5.000710621102582536e+02 5.000691294307974317e+02 5.000836592336572153e+02 5.000761571757614092e+02 5.000895456636020526e+02 5.000926824062781293e+02 5.000968532507519626e+02 5.000218345899742758e+02 5.000503953672004513e+02 5.000580291170499549e+02 5.000506786863162461e+02 5.000730517612729500e+02 5.000940726798338005e+02 5.000902162684874384e+02 5.000690961718846665e+02 5.000328983463373902e+02 5.000602128409025795e+02 5.000839914713619692e+02 5.000264372776814525e+02 5.000665146921899122e+02 5.000540317002389088e+02 5.000315939598840487e+02 5.000324896533966808e+02 5.000682555237546580e+02 5.000069365707960287e+02 5.000019477189957229e+02 5.000645167602880292e+02 2.974444734164435195e-02
5.660171846745472995e-02 5.000046368314792176e+02 5.000869270875435291e+02 5.000037720002424066e+02 5.000242871427990963e+02 5.000134955491426467e+02 5.000232623500800742e+02 5.000175092936568149e+02 5.000706216677439784e+02 5.000278037392889132e+02 5.000423680900677255e+02 5.000365613311058155e+02 5.000823882237218641e+02 5.000770802291839914e+02 5.000080181922674001e+02 5.000215694093861316e+02 5.000569713003001198e+02 5.000059030295824982e+02 5.000987941988504986e+02 5.000416243601020483e+02 5.000089305941901898e+02 5.000601221154831819e+02 5.000371362230263799e+02 5.000659331924630351e+02 5.000034140929494697e+02 5.000033089526195909e+02 5.000190689177690047e+02 5.000179578434041332e+02 5.000083063880131249e+02 5.000644780085260095e+02 5.000508351538236980e+02 5.000985921026815504e+02 5.000464124043040783e+02 5.000755311808580359e+02 5.000349231751698085e+02 5.000932965936389678e+02 5.000646663700816816e+02 5.000518968811754235e+02 5.000206659228431363e+02 5.000976818928051557e+02 5.000631582704018001e+02 5.000170648776182247e+02 5.000088616780584516e+02 5.000604264743124645e+02 5.000844267687918432e+02 5.000844449777588352e+02 5.000780038418599247e+02 5.000247332852373461e+02 5.000694937144928645e+02 5.000450535321110692e+02 5.000864890425058320e+02 5.000750549387254864e+02 5.000196792375776340e+02 5.000134309919769748e+02 5.000116171684180131e+02 5.000173703816241755e+02 5.000510185544218302e+02 5.000504137093373060e+02 5.000007835601509782e+02 5.000002524680556348e+02 5.000788463852102268e+02 5.000204663664690656e+02 5.000753435902898332e+02 5.000504610929679643e+02 5.000625543672404092e+02 5.000133445352662989e+02 5.000345002540054793e+02 5.000103987495266438e+02 5.000997318122383604e+02 5.000064374586385725e+02 5.000776183418892060e+02 5.000947373260057134e+02 5.000591599251071102e+02 5.000932224916210203e+02 5.000111627242015402e+02 5.000865742737310597e+02 5.000375817431194037e+02 5.000227537661932047e+02 5.000887982108390020e+02 5.000631338095978435e+02 5.000272175952289331e+02 5.000933590425821080e+02 5.000523262280649419e+02 5.000162803780020795e+02 5.000594459929408231e+02 5.000166167112869857e+02 5.000697744981358710e+02 5.000457416184229373e+02 5.000489460537103810e+02 5.000908272416773457e+02 5.000084992894481957e+02 5.000649235410604092e+02 5.000162287694259931e+02 5.000198212742330952e+02 5.000968598511136634e+02 5.000288822887465017e+02 5.000917290114232969e+02 5.000472177626749613e+02 5.000264039138174894e+02 4.170356824866335715e-02
9.213401027609920135e-02 5.000523622602279943e+02 5.000006147739385369e+02 5.000181861857902277e+02 5.000658874774562719e+02 5.000136214522908631e+02 5.000773776820609555e+02 5.000310467586701861e+02 5.000045216605855103e+02 5.000728818671531712e+02 5.000007348588233640e+02 5.000327234427410872e+02 5.000883963245826180e+02 5.000009554866820736e+02 5.000760914254876184e+02 5.000290599724557410e+02 5.000898004969505450e+02 5.000840490318087745e+02 5.000841863780794370e+02 5.000128172298782374e+02 5.000749847833307626e+02 5.000878943412083686e+02 5.000979984649551398e+02 5.000524433905994215e+02 5.000240767921790166e+02 5.000936811187093554e+02 5.000722057859845791e+02 5.000519519906895880e+02 5.000705578729036915e+02 5.000619532076891574e+02 5.000348064372197996e+02 5.000842952720357744e+02 5.000087306700896193e+02 5.000021228725504443e+02 5.000350423134141806e+02 5.000467678058279262e+02 5.000884392747884704e+02 5.000298292340661988e+02 5.000029741045956371e+02 5.000459201973661152e+02 5.000990517895595531e+02 5.000133241855719461e+02 5.000056091918106063e+02 5.000020714023045798e+02 5.000187131483742746e+02 5.000547668704238049e+02 5.000851323393052894e+02 5.000836873126088449e+02 5.000964763672105846e+02 5.000517436408143794e+02 5.000697715270639492e+02 5.000690359743053364e+02 5.000397086895314942e+02 5.000348108687185231e+02 5.000241948093527640e+02 5.000154138175535650e+02 5.000581004415031998e+02 5.000697447822337836e+02 5.000705314536057244e+02 5.000248758336478545e+02 5.000093089528338055e+02 5.000467780098568937e+02 5.000121342830966569e+02 5.000098198506850053e+02 5.000452604276558759e+02 5.000131182233272398e+02 5.000056840423008566e+02 5.000578087185666618e+02 5.000464649642585186e+02 5.000959161364648935e+02 5.000539008331262494e+02 5.000768881083942006e+02 5.000923644340725218e+02 5.000236205725296372e+02 5.000535759510017897e+02 5.000498774862144273e+02 5.000780599362420276e+02 5.000294808460977265e+02 5.000815398544982600e+02 5.000697234931980120e+02 5.000246744442318914e+02 5.000278994567957511e+02 5.000784710239977358e+02 5.000671270111292301e+02 5.000175263928837239e+02 5.000430360713268669e+02 5.000725248199470911e+02 5.000729074328259003e+02 5.000037328458976162e+02 5.000352656034442020e+02 5.000720579587226098e+02 5.000715577547915700e+02 5.000616797302276382e+02 5.000450930347967073e+02 5.000237713360071439e+02 5.000329692339054759e+02 5.000390322726115073e+02 5.000645660116140334e+02 5.000321019523714199e+02 5.191546659077180687e-02
5.234813853615070955e-02 5.000874469136404628e+02 5.000487413291343159e+02 5.000986186098497797e+02 5.000086973056625084e+02 5.000037017397141881e+02 5.000292014832774043e+02 5.000918968883216849e+02 5.000521597886913128e+02 5.000022477026541878e+02 5.000137428509739834e+02 5.000584297189291192e+02 5.000737998711412047e+02 5.000874034945087487e+02 5.000867791599890779e+02 5.000106699444016272e+02 5.000761344454969048e+02 5.000219842614863524e+02 5.000581373218202543e+02 5.000784498563639318e+02 5.000226469236445155e+02 5.000633118665611505e+02 5.000047777562194824e+02 5.000803363353696227e+02 5.000518377422419007e+02 5.000775013227317345e+02 5.000169785090698724e+02 5.000763200675160078e+02 5.000678290285401886e+02 5.000842841258547651e+02 5.000097145949234232e+02 5.000294444699773067e+02 5.000518242176733565e+02 5.000247975173428472e+02 5.000064172578256034e+02 5.000915804886475371e+02 5.000132350620721127e+02 5.000795797329310517e+02 5.000518403674162755e+02 5.000928841357169858e+02 5.000193185659669552e+02 5.000017267422021519e+02 5.000467567727786218e+02 5.000212286982462047e+02 5.000063435049444820e+02 5.000847779877918242e+02 5.000111261216371190e+02 5.000629742913654923e+02 5.000600855309581902e+02 5.000224099164721565e+02 5.000325962408357441e+02 5.000195838338466388e+02 5.000081015545095511e+02 5.000712021008442889e+02 5.000074167436320636e+02 5.000014331773776917e+02 5.000976991095093354e+02 5.000842390900705823e+02 5.000981536712548063e+02 5.000050355587870854e+02 5.000037573708912646e+02 5.000955147201545401e+02 5.000198798590684532e+02 5.000209950426508385e+02 5.000986309100226208e+02 5.000959433609676239e+02 5.000802855320999925e+02 5.000481115789904720e+02 5.000095674971535686e+02 5.000573659471414203e+02 5.000201257307555238e+02 5.000158673359272257e+02 5.000290339001259667e+02 5.000745827067409550e+02 5.000224842356916497e+02 5.000435740858815734e+02 5.000778405622471610e+02 5.000184212913304123e+02 5.000719906548650897e+02 5.000654452785761919e+02 5.000145415266702571e+02 5.000380152169610710e+02 5.000034551536726326e+02 5.000769664029427872e+02 5.000882446318798316e+02 5.000133200462287846e+02 5.000073060932853082e+02 5.000507316536024973e+02 5.000622205896724495e+02 5.000057700515306465e+02 5.000733577682827331e+02 5.000701051622305044e+02 5.000961464328348143e+02 5.000765432467950404e+02 5.000505542418487153e+02 5.000621289210893679e+02 5.000162224797304020e+02 5.000518535725710194e+02 5.000156444126697011e+02 2.655335597451358338e-03
6.229481079083745015e-02 5.000415637045264816e+02 5.000043421284362353e+02 5.000814302528726216e+02 5.000194637662037280e+02 5.000768598060718659e+02 5.000922461365687468e+02 5.000734395487564825e+02 5.000222237186276857e+02 5.000603463757852865e+02 5.000964595169911036e+02 5.000632060191766186e+02 5.000574922654218994e+02 5.000199839012164489e+02 5.000340834948789279e+02 5.000924710355000684e+02 5.000254293963074019e+02 5.000267246187719934e+02 5.000717058177830268e+02 5.000719043306820595e+02 5.000580386103477508e+02 5.000418039065534686e+02 5.000640451457136351e+02 5.000508843827050214e+02 5.000022421335859804e+02 5.000707479027244631e+02 5.000745736571137172e+02 5.000801288282006567e+02 5.000671264248031775e+02 5.000321351320969256e+02 5.000004197385359817e+02 5.000845050689010804e+02 5.000619720965878514e+02 5.000888610201507163e+02 5.000337197708876147e+02 5.000943219293359903e+02 5.000782696235444291e+02 5.000852897370402843e+02 5.000430706264547212e+02 5.000829732683193924e+02 5.000714245236591182e+02 5.000581395939516938e+02 5.000665972527410190e+02 5.000495401050370106e+02 5.000312081920598075e+02 5.000325465752763421e+02 5.000090821740705564e+02 5.000699598882156920e+02 5.000152411701733399e+02 5.000928934512265869e+02 5.000944585916486176e+02 5.000491329830915106e+02 5.000994275004501901e+02 5.000393424184052833e+02 5.000260026979065628e+02 5.000526328081065799e+02 5.000442549439908362e+02 5.000969139814428104e+02 5.000629656024113388e+02 5.000718997822024221e+02 5.000420817103095033e+02 5.000326636371240170e+02 5.000914050980299521e+02 5.000700634348657445e+02 5.000734836204920839e+02 5.000893527034270960e+02 5.000511664235310718e+02 5.000525017990494234e+02 5.000161644475232947e+02 5.000798798359724628e+02 5.000815775133967804e+02 5.000118452145190417e+02 5.000130473178836610e+02 5.000858307629577553e+02 5.000411144128377714e+02 5.000940691536192162e+02 5.000341459254890992e+02 5.000193347943990716e+02 5.000544720790372253e+02 5.000205845343093642e+02 5.000378234088418594e+02 5.000447119054630889e+02 5.000981065008102746e+02 5.000080434228146373e+02 5.000385547563874979e+02 5.000883748208271413e+02 5.000883277569275265e+02 5.000093296977575505e+02 5.000884400465195085e+02 5.000859425587820510e+02 5.000427762141607673e+02 5.000816299424421913e+02 5.000022075463332385e+02 5.000362208188952309e+02 5.000822031164831287e+02 5.000479597921276422e+02 5.000836409537697591e+02 5.000002099783241647e+02 5.000455466637516793e+02 2.088699737915683530e-02
1.834783226245318907e-02 5.000032342463506438e+02 5.000715065304246423e+02 5.000863638454584930e+02 5.000771476015638086e+02 5.000933660770047595e+02 5.000285234880775533e+02 5.000314621791982290e+02 5.000997984957321592e+02 5.000033690829567945e+02 5.000718422785319035e+02 5.000726274569534553e+02 5.000316124874353818e+02 5.000182342307300019e+02 5.000865157391860407e+02 5.000487054513180283e+02 5.000149758302505347e+02 5.000609273004096167e+02 5.000097008522124042e+02 5.000063821528076460e+02 5.000461395207886426e+02 5.000538108573275053e+02 5.000256475222104200e+02 5.000546328779027476e+02 5.000834461356973293e+02 5.000460978011197994e+02 5.000742546295438729e+02 5.000444807275929975e+02 5.000066754715517163e+02 5.000788224508198709e+02 5.000154465475569623e+02 5.000884728282635479e+02 5.000895491411254739e+02 5.000203288568812354e+02 5.000623643684764374e+02 5.000968982436483543e+02 5.000168266087675875e+02 5.000788341165347219e+02 5.000351917527902970e+02 5.000313580524252188e+02 5.000091200896755481e+02 5.000314974266119066e+02 5.000011217464721085e+02 5.000214231966186844e+02 5.000206794542797866e+02 5.000242993132292781e+02 5.000313960948822114e+02 5.000987931905664823e+02 5.000624902888424685e+02 5.000841285179334363e+02 5.000488249320831073e+02 5.000102133976927803e+02 5.000555311503173925e+02 5.000707754389409274e+02 5.000619479459639365e+02 5.000803347414330347e+02 5.000160688060455527e+02 5.000892944544976899e+02 5.000202878314842678e+02 5.000228854245901857e+02 5.000054776800823220e+02 5.000942727071010268e+02 5.000615607371460101e+02 5.000128285638019747e+02 5.000661404186870982e+02 5.000538409937639699e+02 5.000710354799622905e+02 5.000388843656374434e+02 5.000526230970731376e+02 5.000830997262289088e+02 5.000071265412071284e+02 5.000652181279355659e+02 5.000020599570560762e+02 5.000709532755329292e+02 5.000978257941461038e+02 5.000144480424496578e+02 5.000807567370761717e+02 5.000986778438153806e+02 5.000280216192882108e+02 5.000110123170313159e+02 5.000176692519926291e+02 5.000089482130086367e+02 5.000491417824270002e+02 5.000976894153030798e+02 5.000962002909108719e+02 5.000834744077172331e+02 5.000844144275852727e+02 5.000898045298607144e+02 5.000854736903521029e+02 5.000608177704622221e+02 5.000935224942953710e+02 5.000995759255742996e+02 5.000769354799942903e+02 5.000581969663090831e+02 5.000564951110859511e+02 5.000089515340248454e+02 5.000857574898997768e+02 5.000698598490583890e+02 5.000181612593209479e+02 5.605956688471530613e-02
8.794976998887321651e-02 5.000854871401603532e+02 5.000522527438933480e+02 5.000724710377522797e+02 5.000904439444937566e+02 5.000388030830409321e+02 5.000626316473131396e+02 5.000671433218164452e+02 5.000726994151904137e+02 5.000066839364071143e+02 5.000109452658636542e+02 5.000627609103086115e+02 5.000039738031969137e+02 5.000506452030385844e+02 5.000722357648387515e+02 5.000806274681668242e+02 5.000749034787577898e+02 5.000364119390137034e+02 5.000579860439837034e+02 5.000749192598831883e+02 5.000022093336373246e+02 5.000722442836235473e+02 5.000256442002288395e+02 5.000780797288147141e+02 5.000974108259101740e+02 5.000979437566320485e+02 5.000081427358455244e+02 5.000270115292325386e+02 5.000989277339014620e+02 5.000955999282958828e+02 5.000673229569439400e+02 5.000111627815767861e+02 5.000101276013294296e+02 5.000150013379219445e+02 5.000873271374661044e+02 5.000165335445611845e+02 5.000619809387253554e+02 5.000829073452240436e+02 5.000209260190271721e+02 5.000558279096989622e+02 5.000866751729317912e+02 5.000653087576347389e+02 5.000148660377787451e+02 5.000465271748481086e+02 5.000893736930498790e+02 5.000473861691249908e+02 5.000207279246911298e+02 5.000803483781663772e+02 5.000687578334009800e+02 5.000067126253799188e+02 5.000937295921129930e+02 5.000218422637967706e+02 5.000787390898610170e+02 5.000581410948280450e+02 5.000112786277171040e+02 5.000755561354504835e+02 5.000793286699969826e+02 5.000780967165380844e+02 5.000762956646112229e+02 5.000101234711394227e+02 5.000105518127967343e+02 5.000498829295365795e+02 5.000642703311282844e+02 5.000932394983860831e+02 5.000031869619331815e+02 5.000429505686755647e+02 5.000081470822420329e+02 5.000995208232655500e+02 5.000577832078240021e+02 5.000675964027364557e+02 5.000975735484245206e+02 5.000714086464739125e+02 5.000962452960746418e+02 5.000003394735952611e+02 5.000419980181393953e+02 5.000178291274160074e+02 5.000639528310092032e+02 5.000540717419347629e+02 5.000977643275263063e+02 5.000819252997171702e+02 5.000348644358462593e+02 5.000850614319277838e+02 5.000704606640626366e+02 5.000839584190849791e+02 5.000743099016437441e+02 5.000850791634649113e+02 5.000287095444062970e+02 5.000579304024759040e+02 5.000435912566595675e+02 5.000845411759217427e+02 5.000022736983514164e+02 5.000071190499145928e+02 5.000837333790980779e+02 5.000245977763445921e+02 5.000238991158516342e+02 5.000049590298821158e+02 5.000960185821941195e+02 5.000024081919339665e+02 5.000014542037650926e+02 3.995440339956461001e-02
9.749028601234343422e-03 5.000279048076304775e+02 5.000675917324446118e+02 5.000052994140999658e+02 5.000349262203730518e+02 5.000034927002471363e+02 5.000859979585915767e+02 5.000080377503468299e+02 5.000205284175270322e+02 5.000709178080974198e+02 5.000095298531467733e+02 5.000854379256069819e+02 5.000607860427838887e+02 5.000092096941932027e+02 5.000208543350876198e+02 5.000921294072757064e+02 5.000201884011337938e+02 5.000415542199215793e+02 5.000357605721923733e+02 5.000603222857460537e+02 5.000601547197406944e+02 5.000314292688081537e+02 5.000860407861974295e+02 5.000647931437213174e+02 5.000021962405202203e+02 5.000133910961312154e+02 5.000377943104776364e+02 5.000857667088694711e+02 5.000395277273608485e+02 5.000061012144693677e+02 5.000012069384370648e+02 5.000289462423381224e+02 5.000955618604708661e+02 5.000653228453311385e+02 5.000059281685885253e+02 5.000631569755699388e+02 5.000506994484053962e+02 5.000550973598734004e+02 5.000312137884846493e+02 5.000350038232534757e+02 5.000105692293681159e+02 5.000253551180537670e+02 5.000229053676798685e+02 5.000720911869830729e+02 5.000494015152636962e+02 5.000832852539508053e+02 5.000342139217570434e+02 5.000299645985389247e+02 5.000168450390813746e+02 5.000255341019932871e+02 5.000643370541527020e+02 5.000238460238084031e+02 5.000425215607916130e+02 5.000141953071723719e+02 5.000741830850573706e+02 5.000143726887656044e+02 5.000571429791777405e+02 5.000014125466033192e+02 5.000235262890701620e+02 5.000159347960686773e+02 5.000712997297563902e+02 5.000880943825670784e+02 5.000596718696306766e+02 5.000610305987219135e+02 5.000461520764503121e+02 5.000749249037531285e+02 5.000685018409934059e+02 5.000424426805531652e+02 5.000226490694434460e+02 5.000055795218096932e+02 5.000354417842756902e+02 5.000849417297702075e+02 5.000349650128671328e+02 5.000455036523430863e+02 5.000917810844180735e+02 5.000204289574172094e+02 5.000924312051797074e+02 5.000822927736462020e+02 5.000534163530010687e+02 5.000875632247012845e+02 5.000682022156449875e+02 5.000892730400694859e+02 5.000308112771917308e+02 5.000562477566276698e+02 5.000345620898069683e+02 5.000957926121840842e+02 5.000177282613246348e+02 5.000603908959183741e+02 5.000016912061730068e+02 5.000818258898014506e+02 5.000987011678802787e+02 5.000573362352991467e+02 5.000209667558732463e+02 5.000989367949193252e+02 5.000595277917281578e+02 5.000565923913302413e+02 5.000223160043974531e+02 5.000866572497320703e+02 5.000837922887235436e+02 1.669811712263029671e-02
3.878634033380564533e-02 5.000604204139434046e+02 5.000819936191245461e+02 5.000981731186384422e+02 5.000249649611890277e+02 5.000879885626480927e+02 5.000002146092969610e+02 5.000442851389654493e+02 5.000956395330437090e+02 5.000138753880069089e+02 5.000672938898996449e+02 5.000971677537440314e+02 5.000347104705799097e+02 5.000838903835485212e+02 5.000788353429811650e+02 5.000485022599785907e+02 5.000803695955208923e+02 5.000872427662396831e+02 5.000391208146760960e+02 5.000067594422246771e+02 5.000733407211128565e+02 5.000966656655219253e+02 5.000949221677819310e+02 5.000820067162351847e+02 5.000332045705247310e+02 5.000075784367569440e+02 5.000563799898843058e+02 5.000452529506786732e+02 5.000373163464564072e+02 5.000184769717382665e+02 5.000195146743965324e+02 5.000892397223465764e+02 5.000442781583670921e+02 5.000986823410270290e+02 5.000896913335704426e+02 5.000522509123377972e+02 5.000552143453302278e+02 5.000531718997873440e+02 5.000480055119702456e+02 5.000876401577154979e+02 5.000627288716574981e+02 5.000727711535145090e+02 5.000545286283904147e+02 5.000630744973268520e+02 5.000593236538487645e+02 5.000067058131058957e+02 5.000582178014111605e+02 5.000297638930385347e+02 5.000570801131801204e+02 5.000475992758037478e+02 5.000591747098269479e+02 5.000537029980696957e+02 5.000492098492624677e+02 5.000523509831930369e+02 5.000182865895948225e+02 5.000036075404599387e+02 5.000621853482097094e+02 5.000565040291291439e+02 5.000427509190809587e+02 5.000539577688824124e+02 5.000873218679962520e+02 5.000592262462087092e+02 5.000575319735975768e+02 5.000748484553460571e+02 5.000143743942222159e+02 5.000092310888146585e+02 5.000726907252471278e+02 5.000947217356472834e+02 5.000683349195184064e+02 5.000530278071130397e+02 5.000541271315341874e+02 5.000079965908657869e+02 5.000403101513023785e+02 5.000360493432569911e+02 5.000438711183675764e+02 5.000549741017009637e+02 5.000517506862117898e+02 5.000757477854914441e+02 5.000207136702898651e+02 5.000583247516079837e+02 5.000175006244107294e+02 5.000590381071271509e+02 5.000542435621859454e+02 5.000307323109756794e+02 5.000981971540186919e+02 5.000446799178559445e+02 5.000886293116861907e+02 5.000980183518622084e+02 5.000920969383282682e+02 5.000377680713855852e+02 5.000775131020340041e+02 5.000817901760422046e+02 5.000940050712537754e+02 5.000840802490069450e+02 5.000671952580653965e+02 5.000257286243098633e+02 5.000660450688076821e+02 5.000919552096727330e+02 5.000295197358912560e+02 9.818670078189446759e-02
4.333685785204446222e-02 5.000950758064137176e+02 5.000965936043769489e+02 5.000566345630499541e+02 5.000035331077514797e+02 5.000812028706263845e+02 5.000086635521095673e+02 5.000831778405696468e+02 5.000829172304041208e+02 5.000459959993957568e+02 5.000441767071294521e+02 5.000787292704064271e+02 5.000769716337809427e+02 5.000319875719295624e+02 5.000317649827422883e+02 5.000806163268146065e+02 5.000238478588586304e+02 5.000776046315467624e+02 5.000844630933956978e+02 5.000336691032170506e+02 5.000081446849243321e+02 5.000445519656320243e+02 5.000675776792135139e+02 5.000732071611731158e+02 5.000842033347112192e+02 5.000455034647817456e+02 5.000271841241222432e+02 5.000876195595473632e+02 5.000404502802172146e+02 5.000181571255324684e+02 5.000012624483722448e+02 5.000043843830713968e+02 5.000896827933224245e+02 5.000413227741898368e+02 5.000804537219248118e+02 5.000519134048136607e+02 5.000541984406514189e+02 5.000006348524529471e+02 5.000662157148449296e+02 5.000137099728346470e+02 5.000426568484069776e+02 5.000623654335475408e+02 5.000381460179274313e+02 5.000159230776460504e+02 5.000007125895132276e+02 5.000832114393764414e+02 5.000360816705971274e+02 5.000711311812688677e+02 5.000440623680687509e+02 5.000018474431770983e+02 5.000280916956546093e+02 5.000022062032555823e+02 5.000242751282718245e+02 5.000225900617736556e+02 5.000180458113629811e+02 5.000873295691530416e+02 5.000654926955672295e+02 5.000972272137956907e+02 5.000181743317872360e+02 5.000483390704247313e+02 5.000972887325594911e+02 5.000429068878038947e+02 5.000987177608926118e+02 5.000182992411337750e+02 5.000526675859427996e+02 5.000251415875018779e+02 5.000940138426234967e+02 5.000538131848445005e+02 5.000882937281751879e+02 5.000298095348974812e+02 5.000621091099865225e+02 5.000290943199211142e+02 5.000603592971287981e+02 5.000601385129011760e+02 5.000830767959870968e+02 5.000823598310098532e+02 5.000106424120830866e+02 5.000791493942098782e+02 5.000242170961927854e+02 5.000869630482966954e+02 5.000996549450561020e+02 5.000455435595813469e+02 5.000595114049079370e+02 5.000883732962623185e+02 5.000093701914613575e+02 5.000366975447877849e+02 5.000479824908617843e+02 5.000300587295026844e+02 5.000513038377773682e+02 5.000726587189749921e+02 5.000387259200525136e+02 5.000056311790710311e+02 5.000976493198140815e+02 5.000285093646743917e+02 5.000453762560921973e+02 5.000719465304886171e+02 5.000222366092286848e+02 5.000494623623072243e+02 5.000782368610712751e+02 7.006133590058766236e-02
7.488791594575414101e-02 5.000496639435595512e+02 5.000384085159795973e+02 5.000901090809397829e+02 5.000448234820138396e+02 5.000799130394429994e+02 5.000874876675051723e+02 5.000027157494616858e+02 5.000111276782656660e+02 5.000559573973060310e+02 5.000607082431538402e+02 5.000547987019509151e+02 5.000699082100722421e+02 5.000205141370512365e+02 5.000642288254284153e+02 5.000389973891421391e+02 5.000471490017225165e+02 5.000948853505655052e+02 5.000339487003803356e+02 5.000389448934835741e+02 5.000147385183455526e+02 5.000647840877698513e+02 5.000584712540199348e+02 5.000645307273335334e+02 5.000723553252720990e+02 5.000537125169563524e+02 5.000719082183881028e+02 5.000972924002057880e+02 5.000420396212635978e+02 5.000723416905568115e+02 5.000565827914498414e+02 5.000231882950884028e+02 5.000022868661611710e+02 5.000715578950618010e+02 5.000857396972494939e+02 5.000716546252547801e+02 5.000743723475912361e+02 5.000532010414029287e+02 5.000604231231632752e+02 5.000342005439136415e+02 5.000306706470034896e+02 5.000233924188834749e+02 5.000800846039088583e+02 5.000367466360265780e+02 5.000472115227186123e+02 5.000785370326325960e+02 5.000848048526856360e+02 5.000361334750876949e+02 5.000014778994828930e+02 5.000739335263402836e+02 5.000418303565253382e+02 5.000154089942699329e+02 5.000128667280415584e+02 5.000037518837884249e+02 5.000915789956873141e+02 5.000002498257019283e+02 5.000403234615189945e+02 5.000547975609690070e+02 5.000665980854053032e+02 5.000694303470544924e+02 5.000193738901146503e+02 5.000661113853994379e+02 5.000528009944635528e+02 5.000826270036164942e+02 5.000937802187951320e+02 5.000614179820904042e+02 5.000950447481052379e+02 5.000238907554966659e+02 5.000044863679205491e+02 5.000083291158640577e+02 5.000215314711605856e+02 5.000759800452552213e+02 5.000932012078611706e+02 5.000779024854669501e+02 5.000474407768171545e+02 5.000222644745680327e+02 5.000184258106742732e+02 5.000957106123838116e+02 5.000493625264325033e+02 5.000043926037340043e+02 5.000688312137706930e+02 5.000475847705840238e+02 5.000495168375484809e+02 5.000298937259611307e+02 5.000297081125790442e+02 5.000415312956997695e+02 5.000775569425478579e+02 5.000536974053072186e+02 5.000132460308547593e+02 5.000355384596442718e+02 5.000943688678156036e+02 5.000700874197438566e+02 5.000755544942342681e+02 5.000381263345669822e+02 5.000515337282953965e+02 5.000252625318763648e+02 5.000212715826302770e+02 5.000323796985583726e+02 5.000556973807151167e+02 5.919871739677486783e-02
5.455303688726272776e-02 5.000303106873242314e+02 5.000044778753876358e+02 5.000567574234681274e+02 5.000184518256064052e+02 5.000955164674055027e+02 5.000821421149092885e+02 5.000056275360843188e+02 5.000020438359956643e+02 5.000902586440713549e+02 5.000496325935121718e+02 5.000846550604449021e+02 5.000663422555451234e+02 5.000275465055860309e+02 5.000426221309293737e+02 5.000341927452514028e+02 5.000021766228326214e+02 5.000542619627869385e+02 5.000297465963164427e+02 5.000977656098604598e+02 5.000465351727758048e+02 5.000624166959726722e+02 5.000713624578621079e+02 5.000045673410738800e+02 5.000399701596969066e+02 5.000998717112178156e+02 5.000864488723200907e+02 5.000696920960346574e+02 5.000798459061235235e+02 5.000474423569396549e+02 5.000298609775852015e+02 5.000305492867728390e+02 5.000757017095639867e+02 5.000240459192284561e+02 5.000067139164420951e+02 5.000615447008426599e+02 5.000261640042752447e+02 5.000855439239949192e+02 5.000306273400831287e+02 5.000074196963236659e+02 5.000690067644727606e+02 5.000493654796297847e+02 5.000722948276636544e+02 5.000222700160925910e+02 5.000637873077180302e+02 5.000637214538436979e+02 5.000754105952959776e+02 5.000317349370645843e+02 5.000749275948722925e+02 5.000706097863691753e+02 5.000219997570140436e+02 5.000436994676425684e+02 5.000974681221832725e+02 5.000219289781635439e+02 5.000458277539780738e+02 5.000590152866324161e+02 5.000826063785645488e+02 5.000141840021593111e+02 5.000213411393551155e+02 5.000459979805621629e+02 5.000012468934073127e+02 5.000462357776475528e+02 5.000423540535375082e+02 5.000895917169648328e+02 5.000555720156978623e+02 5.000011645471941506e+02 5.000666428131904127e+02 5.000178218791537574e+02 5.000639243233350157e+02 5.000533029423262406e+02 5.000386350142237575e+02 5.000915052945645130e+02 5.000346764744617190e+02 5.000298244391611888e+02 5.000388694222451136e+02 5.000123333053958845e+02 5.000861707483400664e+02 5.000194762036611564e+02 5.000709594480791225e+02 5.000609948616656197e+02 5.000880249945714127e+02 5.000928573636769556e+02 5.000274718887758354e+02 5.000208895931368716e+02 5.000194855791978057e+02 5.000162415986239353e+02 5.000692069150643988e+02 5.000570126339061403e+02 5.000570196132080127e+02 5.000731647045358841e+02 5.000887880310677929e+02 5.000307817584401846e+02 5.000912807513508369e+02 5.000268962166256870e+02 5.000717712430962365e+02 5.000465600180979209e+02 5.000035401388901164e+02 5.000777868056421198e+02 5.000598959583639953e+02 1.570286808557773764e-02
6.825597533913130288e-02 5.000123009294941880e+02 5.000216242186457407e+02 5.000298888225133851e+02 5.000577978799746006e+02 5.000824666951698987e+02 5.000902258544179517e+02 5.000830467544346334e+02 5.000447595189423282e+02 5.000376994982455017e+02 5.000514707184817098e+02 5.000352934195182115e+02 5.000688248355079963e+02 5.000409220304001110e+02 5.000829666207668538e+02 5.000490029804156507e+02 5.000495429839884878e+02 5.000880895016442196e+02 5.000918513705522628e+02 5.000400568984547363e+02 5.000221908066740752e+02 5.000058014062316829e+02 5.000392765179371395e+02 5.000417469083093920e+02 5.000219761314333482e+02 5.000709191225588484e+02 5.000039184183458474e+02 5.000586749570791767e+02 5.000565499383890824e+02 5.000539172719117573e+02 5.000050227020864781e+02 5.000655804212618136e+02 5.000153545319969908e+02 5.000744029813640736e+02 5.000230813831906858e+02 5.000765930438025180e+02 5.000015925352977888e+02 5.000544721411129672e+02 5.000144418043912538e+02 5.000556278272681539e+02 5.000299187992703196e+02 5.000640674450042980e+02 5.000169568474661901e+02 5.000776777324053910e+02 5.000846534391362184e+02 5.000246860622611393e+02 5.000891420051848968e+02 5.000032202701549977e+02 5.000431034374099113e+02 5.000309448674068449e+02 5.000398988556395921e+02 5.000881645115740071e+02 5.000179843477288841e+02 5.000692472880448918e+02 5.000604112723062826e+02 5.000724977341268414e+02 5.000450135136568974e+02 5.000705798433880318e+02 5.000419153432400776e+02 5.000315298319844146e+02 5.000556715410921242e+02 5.000291449767513541e+02 5.000632777860123497e+02 5.000721417823850174e+02 5.000164901923543539e+02 5.000910189004855511e+02 5.000997239366017766e+02 5.000742423586083305e+02 5.000644495377944168e+02 5.000958177952448409e+02 5.000116365022184368e+02 5.000253549611411472e+02 5.000396402091229788e+02 5.000304424984899470e+02 5.000296923361799486e+02 5.000315351866321976e+02 5.000690347972505947e+02 5.000146023563131621e+02 5.000146005262378139e+02 5.000785492864724802e+02 5.000945767047010122e+02 5.000970073108491647e+02 5.000167292630262068e+02 5.000628598786615839e+02 5.000671763614353154e+02 5.000521439491230922e+02 5.000346314694076000e+02 5.000414612355545501e+02 5.000345737470679524e+02 5.000836147924380271e+02 5.000960866109827521e+02 5.000164886048369226e+02 5.000051458732876313e+02 5.000715141430827657e+02 5.000102626030708279e+02 5.000531487228295191e+02 5.000638951357537394e+02 5.000097021574870269e+02 5.000323649799024111e+02 2.495446930935284538e-02
7.681000663350590063e-03 5.000748111923630859e+02 5.000062900143430511e+02 5.000754622975064194e+02 5.000541159955716353e+02 5.000687539655226033e+02 5.000337633367529406e+02 5.000092914040701544e+02 5.000888277315798405e+02 5.000894908445817464e+02 5.000411237880780959e+02 5.000222601500093447e+02 5.000303204609690511e+02 5.000702587274905113e+02 5.000599829746184355e+02 5.000757153384162166e+02 5.000755195135656663e+02 5.000152119766799501e+02 5.000385990383065860e+02 5.000767762677324413e+02 5.000001051781252386e+02 5.000110048016748578e+02 5.000711592117154396e+02 5.000082412761244655e+02 5.000629941501823055e+02 5.000537691892085377e+02 5.000660476831509982e+02 5.000102689915647147e+02 5.000890131204363342e+02 5.000435503549588816e+02 5.000085476515699838e+02 5.000685937675325476e+02 5.000078852653847434e+02 5.000110619011160793e+02 5.000081981082315110e+02 5.000614692836834365e+02 5.000075132422970796e+02 5.000400169324685180e+02 5.000033181631594061e+02 5.000215178626874604e+02 5.000352731667608737e+02 5.000097269174547137e+02 5.000370356278667714e+02 5.000698761788441971e+02 5.000185541445166564e+02 5.000931700122608845e+02 5.000989183183056070e+02 5.000705284540758839e+02 5.000208849848796149e+02 5.000983167162961536e+02 5.000648482961150307e+02 5.000673885921873421e+02 5.000850080802610478e+02 5.000980407671736430e+02 5.000046245306235164e+02 5.000005769591842295e+02 5.000189971263698681e+02 5.000056755940360063e+02 5.000511828762731739e+02 5.000625462773787149e+02 5.000837572373685589e+02 5.000229445826163897e+02 5.000324461490703243e+02 5.000391776606399503e+02 5.000242673249917402e+02 5.000444229049341516e+02 5.000647847621121400e+02 5.000712597740065917e+02 5.000688253645882355e+02 5.000197160605667932e+02 5.000385879542029670e+02 5.000777780006347371e+02 5.000374165918525478e+02 5.000063163780265540e+02 5.000106765193301612e+02 5.000064281213237791e+02 5.000734069255648819e+02 5.000267586337585612e+02 5.000359307555625605e+02 5.000720234215777964e+02 5.000989130764086781e+02 5.000829149486522169e+02 5.000464969886394897e+02 5.000817174612283793e+02 5.000694275800663604e+02 5.000946655699575558e+02 5.000734480721739601e+02 5.000855787905910574e+02 5.000683063399228558e+02 5.000413167562066974e+02 5.000578029154466435e+02 5.000903580566912296e+02 5.000588082507830450e+02 5.000804135594427748e+02 5.000346527367037197e+02 5.000307061238311235e+02 5.000388364876606602e+02 5.000780276038053671e+02 5.000769269843374900e+02 6.258671202607477002e-02
4.967295210247968384e-03 5.000060274505567577e+02 5.000264636646039662e+02 5.000960114056380803e+02 5.000173907379889329e+02 5.000037260764708549e+02 5.000586133017208681e+02 5.000483306160012376e+02 5.000304718950155802e+02 5.000643785826016483e+02 5.000211858226097092e+02 5.000022154600294471e+02 5.000115613375592147e+02 5.000454879114613504e+02 5.000925164035680268e+02 5.000337356096329700e+02 5.000348211299334480e+02 5.000915719409746885e+02 5.000698660147327814e+02 5.000245425959918748e+02 5.000706489746896750e+02 5.000450119175961845e+02 5.000308578243732995e+02 5.000198519744963619e+02 5.000722079140052756e+02 5.000705376658515320e+02 5.000373805066864179e+02 5.000550595605673152e+02 5.000009192384044354e+02 5.000692387660369036e+02 5.000063764105085511e+02 5.000083143376067483e+02 5.000339841132857259e+02 5.000328492299408367e+02 5.000229153847429870e+02 5.000583743726465400e+02 5.000565004017837509e+02 5.000117627386255776e+02 5.000985831066068954e+02 5.000067122545259508e+02 5.000658920780460335e+02 5.000070425157172735e+02 5.000487272048216596e+02 5.000320410081174032e+02 5.000338084906593394e+02 5.000339287090225184e+02 5.000640514854692924e+02 5.000565686956647369e+02 5.000216789347359168e+02 5.000595190265605652e+02 5.000889526706143897e+02 5.000389227789702318e+02 5.000848733910646615e+02 5.000049579726832008e+02 5.000092841473505132e+02 5.000429555173930680e+02 5.000932622159671723e+02 5.000898312425307495e+02 5.000103199722633462e+02 5.000114615141588956e+02 5.000569891045290092e+02 5.000298844476381532e+02 5.000097317967569666e+02 5.000982256005183899e+02 5.000356853920437743e+02 5.000710980413488755e+02 5.000528054178380444e+02 5.000117633618762056e+02 5.000417868543015629e+02 5.000062364633067205e+02 5.000580842135124158e+02 5.000590759185647585e+02 5.000640070925657028e+02 5.000469553796835953e+02 5.000527358253112880e+02 5.000531672829046101e+02 5.000092645010707884e+02 5.000606696032880905e+02 5.000574172973542204e+02 5.000931472714901815e+02 5.000434805323074556e+02 5.000414314790312460e+02 5.000315036234059107e+02 5.000629017713389430e+02 5.000563403010438606e+02 5.000540933246645068e+02 5.000393403590352932e+02 5.000307135883921319e+02 5.000429914961709983e+02 5.000751352686487508e+02 5.000890649725995445e+02 5.000280747729387940e+02 5.000252878661779619e+02 5.000104892587082759e+02 5.000289526449021764e+02 5.000413821278005457e+02 5.000739406676163412e+02 5.000898463409088777e+02 5.000681680341293145e+02 9.347845748883555628e-02
