ncols 100
nrows 38
xllcorner 0
yllcorner 320
cellsize 10.0
1.384338839538490129e+00 5.014013044803438675e+02 5.014228142063678888e+02 5.014460292529825551e+02 5.014605895938129265e+02 5.014844880098547151e+02 5.015077118910708123e+02 5.015208349457865893e+02 5.015495954429217704e+02 5.015671238946804920e+02 5.015837621390783738e+02 5.016097764000464281e+02 5.016269084489468355e+02 5.016413040506900529e+02 5.016604344441560670e+02 5.016864107355486340e+02 5.017014380663711108e+02 5.017251517537548580e+02 5.017423690257513158e+02 5.017634303269178417e+02 5.017804575421664026e+02 5.018057436515440486e+02 5.018216781328678167e+02 5.018402394955705859e+02 5.018698762684178405e+02 5.018823148328301613e+02 5.019087413395358794e+02 5.019245811906213817e+02 5.019462176411951759e+02 5.019608005052606359e+02 5.019804337671055805e+02 5.020036536963769436e+02 5.020218137513551255e+02 5.020450285929956067e+02 5.020630265287690577e+02 5.020872680941052977e+02 5.021026466977364180e+02 5.021281841160349018e+02 5.021454900313047460e+02 5.021647580176772294e+02 5.021877250328174682e+02 5.022025457740509182e+02 5.022200372305920837e+02 5.022472194001281309e+02 5.022631235327719423e+02 5.022801486718886963e+02 5.023024468707427559e+02 5.023253728597244390e+02 5.023432418072908376e+02 5.023663863675234893e+02 5.023836668252938011e+02 5.024046148156717209e+02 5.024263077957086807e+02 5.024411475862191878e+02 5.024622614399416989e+02 5.024855283000052850e+02 5.025056282302033424e+02 5.025221061352151537e+02 5.025493791946072974e+02 5.025695506502504486e+02 5.025821896883239219e+02 5.026016350680773712e+02 5.026243628818291995e+02 5.026488814315204081e+02 5.026659356911237069e+02 5.026881928001423603e+02 5.027018059646774759e+02 5.027254221500971312e+02 5.027411464598743009e+02 5.027621357197445491e+02 5.027857356128201332e+02 5.028020411529059857e+02 5.028295836788146858e+02 5.028438309448254699e+02 5.028645267597493671e+02 5.028866057600369004e+02 5.029025785694812498e+02 5.029207673479210143e+02 5.029470824581809438e+02 5.029642422149497634e+02 5.029856895911830748e+02 5.030057198602368089e+02 5.030247080965273767e+02 5.030420719381417598e+02 5.030693851029868142e+02 5.030803650841269246e+02 5.031071096514713759e+02 5.031227818235022369e+02 5.031436660864351325e+02 5.031673051145018007e+02 5.031831891797050389e+02 5.032015992338079968e+02 5.032242662038830758e+02 5.032461002502187171e+02 5.032643382930732514e+02 5.032852176321868569e+02 5.033093120774889258e+02 5.033290262003171165e+02 5.033453913834488276e+02 3.361108185834486228e+00
1.362145489084468863e+00 5.013897207453787814e+02 5.014007553213753567e+02 5.014245450781915565e+02 5.014493693245179884e+02 5.014647293972319062e+02 5.014853060164798535e+02 5.015030352848957591e+02 5.015265305846605202e+02 5.015470977024199897e+02 5.015698339153533993e+02 5.015864978165029129e+02 5.016065464496542745e+02 5.016202965102125972e+02 5.016412120449716667e+02 5.016659824400236403e+02 5.016878833393059267e+02 5.017053824783120035e+02 5.017209358979755507e+02 5.017479092487311618e+02 5.017605084923323489e+02 5.017845671984478031e+02 5.018025043242736842e+02 5.018273408921569398e+02 5.018412301178177586e+02 5.018646975301739985e+02 5.018879921435462848e+02 5.019047443621525417e+02 5.019270201716673228e+02 5.019402684249045024e+02 5.019654653072260544e+02 5.019895119205816059e+02 5.020096918771242258e+02 5.020252943338942941e+02 5.020441915017792667e+02 5.020648580655922046e+02 5.020880768577354729e+02 5.021082966404250669e+02 5.021298106185622032e+02 5.021407453432544798e+02 5.021673988103884199e+02 5.021856885656664531e+02 5.022018124130698880e+02 5.022254969195470835e+02 5.022405263965827089e+02 5.022684538692682281e+02 5.022840066854872703e+02 5.023099766087829607e+02 5.023204474625385956e+02 5.023426112639313033e+02 5.023638588281985449e+02 5.023850014017211834e+02 5.024081899110108225e+02 5.024276144666447976e+02 5.024442289976600478e+02 5.024678114595521379e+02 5.024890671403378519e+02 5.025023218916619498e+02 5.025238001988444694e+02 5.025442368473524652e+02 5.025613844416462257e+02 5.025835751348906797e+02 5.026097651866381852e+02 5.026292653847563656e+02 5.026458190076955361e+02 5.026660670078584872e+02 5.026851111965474956e+02 5.027092101969414557e+02 5.027269488118171239e+02 5.027441492366993998e+02 5.027650282360768870e+02 5.027837524994013734e+02 5.028020739336087104e+02 5.028261116019801307e+02 5.028417523855589479e+02 5.028645621746143206e+02 5.028881369630175868e+02 5.029022522799251078e+02 5.029276286735791928e+02 5.029482209232184573e+02 5.029682595622694521e+02 5.029876892748258115e+02 5.030071825390779168e+02 5.030242826179041344e+02 5.030414538868235468e+02 5.030675296641729233e+02 5.030894139589985912e+02 5.031091958434394655e+02 5.031295810524127319e+02 5.031481875024392707e+02 5.031613277150028694e+02 5.031835006760331339e+02 5.032002407290662518e+02 5.032251237477423729e+02 5.032481341177392551e+02 5.032653346190482466e+02 5.032857134795038405e+02 5.033031599433662109e+02 5.033242974548849133e+02 3.342717450045024297e+00
1.349461404608699455e+00 5.013656475841127076e+02 5.013847587124124630e+02 5.014079699007122599e+02 5.014218646204802781e+02 5.014472120085061988e+02 5.014631195440096008e+02 5.014834060699849942e+02 5.015081094227048197e+02 5.015245213864155858e+02 5.015427788151633877e+02 5.015630741868978930e+02 5.015876104449237687e+02 5.016040254129476352e+02 5.016285660630063603e+02 5.016498027092354732e+02 5.016645530995120339e+02 5.016832896609490717e+02 5.017078223984785836e+02 5.017234684269425884e+02 5.017482364833123256e+02 5.017615815752624826e+02 5.017800158576628746e+02 5.018090993913484112e+02 5.018206422843036307e+02 5.018413906336364789e+02 5.018650320287336513e+02 5.018873931752286239e+02 5.019063462624702652e+02 5.019282931306098021e+02 5.019418630175882754e+02 5.019683008216636040e+02 5.019839146260604821e+02 5.020090364674597367e+02 5.020278326178043926e+02 5.020402502562437803e+02 5.020643597548547632e+02 5.020892832938131960e+02 5.021018859377575723e+02 5.021259629889325993e+02 5.021480672307945952e+02 5.021643505518499069e+02 5.021874301168994634e+02 5.022065059433811598e+02 5.022210179879968450e+02 5.022452075135568634e+02 5.022659559696080578e+02 5.022839884137088120e+02 5.023077959680078379e+02 5.023257999067670312e+02 5.023481850817334475e+02 5.023664948359983100e+02 5.023806057246176238e+02 5.024025378173470244e+02 5.024257508040006428e+02 5.024433998457250823e+02 5.024631158459128528e+02 5.024828220508846357e+02 5.025024715457367961e+02 5.025208332107320643e+02 5.025440543188067295e+02 5.025626066280764235e+02 5.025885126295680152e+02 5.026004390657776071e+02 5.026235855504613710e+02 5.026484295323815559e+02 5.026689300812591341e+02 5.026885255015482130e+02 5.027026028957914150e+02 5.027221943800959139e+02 5.027465333458379746e+02 5.027628042227360652e+02 5.027871062110671119e+02 5.028069129431210627e+02 5.028283659234070342e+02 5.028476157176174866e+02 5.028689545664015554e+02 5.028892682406691392e+02 5.029096853251165840e+02 5.029221834590387630e+02 5.029450395367613851e+02 5.029658029117463798e+02 5.029850678686729566e+02 5.030073051761686997e+02 5.030294072680247837e+02 5.030490216268901236e+02 5.030669096172298396e+02 5.030832898346750994e+02 5.031060212841316570e+02 5.031283991471776176e+02 5.031426437278095705e+02 5.031666514692603869e+02 5.031854031700652854e+02 5.032031593960298324e+02 5.032232489653811172e+02 5.032468255524169081e+02 5.032606936571210099e+02 5.032801947719410123e+02 5.033064516760702531e+02 3.322974444734164923e+00
1.325660171846745561e+00 5.013404636831889434e+02 5.013686927087953222e+02 5.013803772000652543e+02 5.014024287143209335e+02 5.014213495549552704e+02 5.014423262350490518e+02 5.014617509294067190e+02 5.014870621668154058e+02 5.015027803739699266e+02 5.015242368090478067e+02 5.015436561331516145e+02 5.015682388224132069e+02 5.015877080229594185e+02 5.016008018192678151e+02 5.016221569409796643e+02 5.016456971300710848e+02 5.016605903029993101e+02 5.016898794199261147e+02 5.017041624360512628e+02 5.017208930594600815e+02 5.017460122115894023e+02 5.017637136223437437e+02 5.017865933192874195e+02 5.018003414093360561e+02 5.018203308953030728e+02 5.018419068918180415e+02 5.018617957843815134e+02 5.018808306388424398e+02 5.019064478008937158e+02 5.019250835154235233e+02 5.019498592103092847e+02 5.019646412404715647e+02 5.019875531181269253e+02 5.020034923175581412e+02 5.020293296594050503e+02 5.020464666370493205e+02 5.020651896881586822e+02 5.020820665923254751e+02 5.021097681893216986e+02 5.021263158270813847e+02 5.021417064878029919e+02 5.021608861678470248e+02 5.021860426474724477e+02 5.022084426769204129e+02 5.022284444978170654e+02 5.022478003842272187e+02 5.022624733285649086e+02 5.022869493714904934e+02 5.023045053532523525e+02 5.023286489042918106e+02 5.023475054939137863e+02 5.023619679237989999e+02 5.023813430992389044e+02 5.024011617168830526e+02 5.024217370382036734e+02 5.024451018554834150e+02 5.024650413709749728e+02 5.024800783560563673e+02 5.025000252468468602e+02 5.025278846385622842e+02 5.025420466366881556e+02 5.025675343590702369e+02 5.025850461093380659e+02 5.026062554367653092e+02 5.026213344535678971e+02 5.026434500254418367e+02 5.026610398749939463e+02 5.026899731812651453e+02 5.027006437459051540e+02 5.027277618342302503e+02 5.027494737326418885e+02 5.027659159925520385e+02 5.027893222492033942e+02 5.028011162724615133e+02 5.028286574274144414e+02 5.028437581743532974e+02 5.028622753766606479e+02 5.028888798211252151e+02 5.029063133810011550e+02 5.029227217595642401e+02 5.029493359042995735e+02 5.029652326228478501e+02 5.029816280378415740e+02 5.030059445993354643e+02 5.030216616711700794e+02 5.030469774498549782e+02 5.030645741618836837e+02 5.030848946054124440e+02 5.031090827242091450e+02 5.031208499289862175e+02 5.031464923541474263e+02 5.031616228769839836e+02 5.031819821274647211e+02 5.032096859851528166e+02 5.032228882289160765e+02 5.032491729011837833e+02 5.032647217763089316e+02 5.032826403914231719e+02 3.304170356824866150e+00
1.309213401027609969e+00 5.013252362260637938e+02 5.013400614774348583e+02 5.013618186186200205e+02 5.013865887477866181e+02 5.014013621452701273e+02 5.014277377682471410e+02 5.014431046759080459e+02 5.014604521660995715e+02 5.014872881867563592e+02 5.015000734859233944e+02 5.015232723443151599e+02 5.015488396324993232e+02 5.015600955487092278e+02 5.015876091425898267e+02 5.016029059972866548e+02 5.016289800497361284e+02 5.016484049032219446e+02 5.016684186378490153e+02 5.016812817230289170e+02 5.017074984783741343e+02 5.017287894341619108e+02 5.017497998465365754e+02 5.017652443391010024e+02 5.017824076792589949e+02 5.018093681119120220e+02 5.018272205786395830e+02 5.018451951991100941e+02 5.018670557873314806e+02 5.018861953208100317e+02 5.019034806437630891e+02 5.019284295272447025e+02 5.019408730670501200e+02 5.019602122872962013e+02 5.019835042313825397e+02 5.020046767806239245e+02 5.020288439275200290e+02 5.020429829234477666e+02 5.020602974105007092e+02 5.020845920197777446e+02 5.021099051789971099e+02 5.021213324185983993e+02 5.021405609192222528e+02 5.021602071402716092e+02 5.021818713148786060e+02 5.022054766870836033e+02 5.022285132339717393e+02 5.022483687313020937e+02 5.022696476367622722e+02 5.022851743641226108e+02 5.023069771527476064e+02 5.023269035974717553e+02 5.023439708689943473e+02 5.023634810869130547e+02 5.023824194809765231e+02 5.024015413817966191e+02 5.024258100441915644e+02 5.024469744782646217e+02 5.024670531454017919e+02 5.024824875834060549e+02 5.025009308953246432e+02 5.025246778010269395e+02 5.025412134283509431e+02 5.025609819851097768e+02 5.025845260428068286e+02 5.026013118223739866e+02 5.026205684042713528e+02 5.026457808718979550e+02 5.026646464964671281e+02 5.026895916136877531e+02 5.027053900833539615e+02 5.027276888108807498e+02 5.027492364434485808e+02 5.027623620572942968e+02 5.027853575951414768e+02 5.028049877486627679e+02 5.028278059936655495e+02 5.028429480846510842e+02 5.028681539854911762e+02 5.028869723493611446e+02 5.029024674444645484e+02 5.029227899457209219e+02 5.029478471024411306e+02 5.029667127011542789e+02 5.029817526393297271e+02 5.030043036071740516e+02 5.030272524820360900e+02 5.030472907433239698e+02 5.030603732846311686e+02 5.030835265603857920e+02 5.031072057959136714e+02 5.031271557755205777e+02 5.031461679730641663e+02 5.031645093035210721e+02 5.031823771336421487e+02 5.032032969234319921e+02 5.032239032273025714e+02 5.032464566012028513e+02 5.032632101952785888e+02 3.285191546659077311e+00
1.285234813853615154e+00 5.013087446914050247e+02 5.013248741329544487e+02 5.013498618610259996e+02 5.013608697306072486e+02 5.013803701740123984e+02 5.014029201483687643e+02 5.014291896888731799e+02 5.014452159789101415e+02 5.014602247703064108e+02 5.014813742851384291e+02 5.015058429719339301e+02 5.015273799871551432e+02 5.015487403494919363e+02 5.015686779160399738e+02 5.015810669944812048e+02 5.016076134445907542e+02 5.016221984261896978e+02 5.016458137322230755e+02 5.016678449856774478e+02 5.016822646924055107e+02 5.017063311866971844e+02 5.017204777756630278e+02 5.017480336335780748e+02 5.017651837742652674e+02 5.017877501323142724e+02 5.018016978509480737e+02 5.018276320067927259e+02 5.018467829028951428e+02 5.018684284126265993e+02 5.018809714595334412e+02 5.019029444470388626e+02 5.019251824218084721e+02 5.019424797517754087e+02 5.019606417258236775e+02 5.019891580489058924e+02 5.020013235062483545e+02 5.020279579733342530e+02 5.020451840367828140e+02 5.020692884136128669e+02 5.020819318566378797e+02 5.021001726742613869e+02 5.021246756773190327e+02 5.021421228698657728e+02 5.021606343505356449e+02 5.021884777988203723e+02 5.022011126122048950e+02 5.022262974291777482e+02 5.022460085531370169e+02 5.022622409916884294e+02 5.022832596241247529e+02 5.023019583834258697e+02 5.023208101554921541e+02 5.023471202101256381e+02 5.023607416744044372e+02 5.023801433177790159e+02 5.024097699109921678e+02 5.024284239090483197e+02 5.024498153671667069e+02 5.024605035559199564e+02 5.024803757371303732e+02 5.025095514720567280e+02 5.025219879859481011e+02 5.025420995043063499e+02 5.025698630910435440e+02 5.025895943361380205e+02 5.026080285532513017e+02 5.026248111579403144e+02 5.026409567497566400e+02 5.026657365947554581e+02 5.026820125731168218e+02 5.027015867336340307e+02 5.027229033900538866e+02 5.027474582707154127e+02 5.027622484236104583e+02 5.027843574086294893e+02 5.028077840562660299e+02 5.028218421291743994e+02 5.028471990655278319e+02 5.028665445278989523e+02 5.028814541527083861e+02 5.029038015217374777e+02 5.029203455154085987e+02 5.029476966403356641e+02 5.029688244632293390e+02 5.029813320046642389e+02 5.030007306093698958e+02 5.030250731654016363e+02 5.030462220590086417e+02 5.030605770051944319e+02 5.030873357768696792e+02 5.031070105162644381e+02 5.031296146433248850e+02 5.031476543247209179e+02 5.031650554242262956e+02 5.031862128921503654e+02 5.032016222480144734e+02 5.032251853572985283e+02 5.032415644413084124e+02 3.260265533559744799e+00
1.266229481079083730e+00 5.012841563704936334e+02 5.013004342128846247e+02 5.013281430253282451e+02 5.013419463766613831e+02 5.013676859806481616e+02 5.013892246136978770e+02 5.014073439549166551e+02 5.014222223719037856e+02 5.014460346376195616e+02 5.014696459517401195e+02 5.014863206019587096e+02 5.015057492265832479e+02 5.015219983901627074e+02 5.015434083495289315e+02 5.015692471035910671e+02 5.015825429396717823e+02 5.016026724619182460e+02 5.016271705818193709e+02 5.016471904331093015e+02 5.016658038610758581e+02 5.016841803906963833e+02 5.017064045146124727e+02 5.017250884383116158e+02 5.017402242133996992e+02 5.017670747903135293e+02 5.017874573657524593e+02 5.018080128828611919e+02 5.018267126425214428e+02 5.018432135132508165e+02 5.018600419738946812e+02 5.018884505069312354e+02 5.019061972096999398e+02 5.019288861020561967e+02 5.019433719771299138e+02 5.019694321929747503e+02 5.019878269623955589e+02 5.020085289737451717e+02 5.020243070626866029e+02 5.020482973268730689e+02 5.020671424524070972e+02 5.020858139594363365e+02 5.021066597253152963e+02 5.021249540105448546e+02 5.021431208192471445e+02 5.021632546575688139e+02 5.021809082174482342e+02 5.022069959888627864e+02 5.022215241170585500e+02 5.022492893451638452e+02 5.022694458592060869e+02 5.022849132983503750e+02 5.023099427500862362e+02 5.023239342418817728e+02 5.023426002698319053e+02 5.023652632808518774e+02 5.023844254944403360e+02 5.024096913981855437e+02 5.024262965602823670e+02 5.024471899782615196e+02 5.024642081710721868e+02 5.024832663637536712e+02 5.025091405098442578e+02 5.025270063435278303e+02 5.025473483620904744e+02 5.025689352703839745e+02 5.025851166423943823e+02 5.026052501799462107e+02 5.026216164447936308e+02 5.026479879836385294e+02 5.026681577513809884e+02 5.026811845214932077e+02 5.027013047318296799e+02 5.027285830763370882e+02 5.027441114413251171e+02 5.027694069154032377e+02 5.027834145925902476e+02 5.028019334794812494e+02 5.028254472079450466e+02 5.028420584534722479e+02 5.028637823409255247e+02 5.028844711905876466e+02 5.029098106501223810e+02 5.029208043423228105e+02 5.029438554756800954e+02 5.029688374821240586e+02 5.029888327757341244e+02 5.030009329698171427e+02 5.030288440046933260e+02 5.030485942559195678e+02 5.030642776214574496e+02 5.030881629942855966e+02 5.031002207546747513e+02 5.031236220819309324e+02 5.031482203116897267e+02 5.031647959792541656e+02 5.031883640954183647e+02 5.032000209978738212e+02 5.032245546664166227e+02 3.242088699737915913e+00
1.241834783226245298e+00 5.012603234246760167e+02 5.012871506530834154e+02 5.013086363845868618e+02 5.013277147601973525e+02 5.013493366077414635e+02 5.013628523488487758e+02 5.013831462179608138e+02 5.014099798496142171e+02 5.014203369083367079e+02 5.014471842278941836e+02 5.014672627457363774e+02 5.014831612487845405e+02 5.015018234231140468e+02 5.015286515739596211e+02 5.015448705451728415e+02 5.015614975830661137e+02 5.015860927300819867e+02 5.016009700852623041e+02 5.016206382153218328e+02 5.016446139521199257e+02 5.016653810857737881e+02 5.016825647522621239e+02 5.017054632878313782e+02 5.017283446136108296e+02 5.017446097801530414e+02 5.017674254629955044e+02 5.017844480728003873e+02 5.018006675471962694e+02 5.018278822451230781e+02 5.018415446547967917e+02 5.018688472828674776e+02 5.018889549141536577e+02 5.019020328857292839e+02 5.019262364368887575e+02 5.019496898244059935e+02 5.019616826609179157e+02 5.019878834116946109e+02 5.020035191753202071e+02 5.020231358052836868e+02 5.020409120090087072e+02 5.020631497427023646e+02 5.020801121746883382e+02 5.021021423197030344e+02 5.021220679454691549e+02 5.021424299313641200e+02 5.021631396095294235e+02 5.021898793190978267e+02 5.022062490289254697e+02 5.022284128518345483e+02 5.022448824932495199e+02 5.022610213398104975e+02 5.022855531150729576e+02 5.023070775439352929e+02 5.023261947946376154e+02 5.023480334741845468e+02 5.023616068806457520e+02 5.023889294454909873e+02 5.024020287831896781e+02 5.024222885425002687e+02 5.024405477680494982e+02 5.024694272707513392e+02 5.024861560737558648e+02 5.025012828564214828e+02 5.025266140419099656e+02 5.025453840994176744e+02 5.025671035480374940e+02 5.025838884366050365e+02 5.026052623097485821e+02 5.026283099726641694e+02 5.026407126541620300e+02 5.026665218128348442e+02 5.026802059957469169e+02 5.027070953275946295e+02 5.027297825794559003e+02 5.027414448042862887e+02 5.027680756737489105e+02 5.027898677844228814e+02 5.028028021619701349e+02 5.028211012317444784e+02 5.028417669252406199e+02 5.028608948213421854e+02 5.028849141782840206e+02 5.029097689415716559e+02 5.029296200291324226e+02 5.029483474408131087e+02 5.029684414427998718e+02 5.029889804530274091e+02 5.030085473690766094e+02 5.030260817770875974e+02 5.030493522494709282e+02 5.030699575925988256e+02 5.030876935480408179e+02 5.031058196966723131e+02 5.031256495111500158e+02 5.031408951534438643e+02 5.031685757490313904e+02 5.031869859849472277e+02 5.032018161259734939e+02 3.225605956688471387e+00
1.228794976998887289e+00 5.012485487140569944e+02 5.012652252744302928e+02 5.012872471038161848e+02 5.013090443944903996e+02 5.013238803083451103e+02 5.013462631647723242e+02 5.013667143322226138e+02 5.013872699415600209e+02 5.014006683936817126e+02 5.014210945266273711e+02 5.014462760910718657e+02 5.014603973803606891e+02 5.014850645203449062e+02 5.015072235765248934e+02 5.015280627468576995e+02 5.015474903479168347e+02 5.015636411939424306e+02 5.015857986044393897e+02 5.016074919260294109e+02 5.016202209334048234e+02 5.016472244284034332e+02 5.016625644200639726e+02 5.016878079729225419e+02 5.017097410826320925e+02 5.017297943757042731e+02 5.017408142736256309e+02 5.017627011529643255e+02 5.017898927734312338e+02 5.018095599928706747e+02 5.018267322957354963e+02 5.018411162781987969e+02 5.018610127601740487e+02 5.018815001338332991e+02 5.019087327137877423e+02 5.019216533544972663e+02 5.019461980939136652e+02 5.019682907345635385e+02 5.019820926019438616e+02 5.020055827910110224e+02 5.020286675173343269e+02 5.020465308758046490e+02 5.020614866038190485e+02 5.020846527175259553e+02 5.021089373693461653e+02 5.021247386169536639e+02 5.021420727925103051e+02 5.021680348378578174e+02 5.021868757833812538e+02 5.022006712625791920e+02 5.022293729592524869e+02 5.022421842264208749e+02 5.022678739090272870e+02 5.022858141095239830e+02 5.023011278628129617e+02 5.023275556135862985e+02 5.023479328670409245e+02 5.023678096716950563e+02 5.023876295665023690e+02 5.024010123471551879e+02 5.024210551813209236e+02 5.024449882929948785e+02 5.024664270331540479e+02 5.024893239498798607e+02 5.025003186962346149e+02 5.025242950569088407e+02 5.025408147082654864e+02 5.025699520823678199e+02 5.025857783208236924e+02 5.026067596403149196e+02 5.026297573548837363e+02 5.026471408646887085e+02 5.026696245296487859e+02 5.026800339474008297e+02 5.027041998018552817e+02 5.027217829127828850e+02 5.027463952831422489e+02 5.027654071742347810e+02 5.027897764327939285e+02 5.028081925300130592e+02 5.028234864436259386e+02 5.028485061432340899e+02 5.028670460664475854e+02 5.028883958419498299e+02 5.029074309902057394e+02 5.029285079163878436e+02 5.029428709544819753e+02 5.029657930402889292e+02 5.029843591257073285e+02 5.030084541176335620e+02 5.030202273698765225e+02 5.030407119050328220e+02 5.030683733379511864e+02 5.030824597776758651e+02 5.031023899116265738e+02 5.031204959030296209e+02 5.031496018582608372e+02 5.031602408192347866e+02 5.031801454204178867e+02 3.203995440339956424e+00
1.200974902860123317e+00 5.012227904808040080e+02 5.012467591732854544e+02 5.012605299414509545e+02 5.012834926220782563e+02 5.013003492700657375e+02 5.013285997959001747e+02 5.013408037750756989e+02 5.013620528417936839e+02 5.013870917808507670e+02 5.014009529853556728e+02 5.014285437926017153e+02 5.014460786043194389e+02 5.014609209694603464e+02 5.014820854335497984e+02 5.015092129407686343e+02 5.015220188401544306e+02 5.015441554220332137e+02 5.015635760572602635e+02 5.015860322286156361e+02 5.016060154720151445e+02 5.016231429269219007e+02 5.016486040786608100e+02 5.016664793144132091e+02 5.016802196240930698e+02 5.017013391096542136e+02 5.017237794310888717e+02 5.017485766709280597e+02 5.017639527727772020e+02 5.017806101214879959e+02 5.018001206938848213e+02 5.018228946242749089e+02 5.018495561860881935e+02 5.018665322845742480e+02 5.018805928168999344e+02 5.019063156975981315e+02 5.019250699448816704e+02 5.019455097360284981e+02 5.019631213788895820e+02 5.019835003823664579e+02 5.020010569229779662e+02 5.020225355118465131e+02 5.020422905368091619e+02 5.020672091187394699e+02 5.020849401515675368e+02 5.021083285254362636e+02 5.021234213922168692e+02 5.021429964598950733e+02 5.021616845039492887e+02 5.021825534102405300e+02 5.022064337054564476e+02 5.022223846024220393e+02 5.022442521561203534e+02 5.022614195307584168e+02 5.022874183085469326e+02 5.023014372689177662e+02 5.023257142979589958e+02 5.023401412547015639e+02 5.023623526289482584e+02 5.023815934796480747e+02 5.024071299730168789e+02 5.024288094382979466e+02 5.024459671870043280e+02 5.024661030599134506e+02 5.024846152076862609e+02 5.025074924904165528e+02 5.025268501841405850e+02 5.025442442680965769e+02 5.025622649069856038e+02 5.025805579522222502e+02 5.026035441784688373e+02 5.026284941730182823e+02 5.026434965013280021e+02 5.026645503652756020e+02 5.026891781084830768e+02 5.027020428957830518e+02 5.027292431205592607e+02 5.027482292774059260e+02 5.027653416353414286e+02 5.027887563225114604e+02 5.028068202216058467e+02 5.028289273040483067e+02 5.028430811277605130e+02 5.028656247757040774e+02 5.028834562090220288e+02 5.029095792612597506e+02 5.029217728261738216e+02 5.029460390896331887e+02 5.029601691206586906e+02 5.029881825890215055e+02 5.030098701168294042e+02 5.030257336235712842e+02 5.030420966756287271e+02 5.030698936795333225e+02 5.030859527792142103e+02 5.031056592391744289e+02 5.031222316004811432e+02 5.031486657250146095e+02 5.031683792289137500e+02 3.181669811712262597e+00
1.183878634033380450e+00 5.012060420414352961e+02 5.012281993619534433e+02 5.012498173119047919e+02 5.012624964961598835e+02 5.012887988563057888e+02 5.013000214609706973e+02 5.013244285139375620e+02 5.013495639533453527e+02 5.013613875388417114e+02 5.013867293890309611e+02 5.014097167754154043e+02 5.014234710470989853e+02 5.014483890383958737e+02 5.014678835343391370e+02 5.014848502260388727e+02 5.015080369595931415e+02 5.015287242766650024e+02 5.015439120815086653e+02 5.015606759442634939e+02 5.015873340721523164e+02 5.016096665665932619e+02 5.016294922168192443e+02 5.016482006716645969e+02 5.016633204570935618e+02 5.016807578437167763e+02 5.017056379990295341e+02 5.017245252951089469e+02 5.017437316346867533e+02 5.017618476972149324e+02 5.017819514674807237e+02 5.018089239722757497e+02 5.018244278158778116e+02 5.018498682341437984e+02 5.018689691333981386e+02 5.018852250912748900e+02 5.019055214345741547e+02 5.019253171900198822e+02 5.019448005512381314e+02 5.019687640158126669e+02 5.019862728872068942e+02 5.020072771153925828e+02 5.020254528628801722e+02 5.020463074497738489e+02 5.020659323654260220e+02 5.020806705813517397e+02 5.021058217801822821e+02 5.021229763893450126e+02 5.021457080113592042e+02 5.021647599276215601e+02 5.021859174710238563e+02 5.022053702998481413e+02 5.022249209849674685e+02 5.022452350983605243e+02 5.022618286590006846e+02 5.022803607540872122e+02 5.023062185348621824e+02 5.023256504029541247e+02 5.023442750919493278e+02 5.023653957769294607e+02 5.023887321868408549e+02 5.024059226246621392e+02 5.024257531974009794e+02 5.024474848455758433e+02 5.024614374394634524e+02 5.024809231089226955e+02 5.025072690725659754e+02 5.025294721736059955e+02 5.025468334919930840e+02 5.025653027807525746e+02 5.025854127131946711e+02 5.026007996591278584e+02 5.026240310151715107e+02 5.026436049343669765e+02 5.026643871118780567e+02 5.026854974102113829e+02 5.027051750686624700e+02 5.027275747785904514e+02 5.027420713670703094e+02 5.027658324752021031e+02 5.027817500624823879e+02 5.028059038107540459e+02 5.028254243562599299e+02 5.028430732311389306e+02 5.028698197154432137e+02 5.028844679918269094e+02 5.029088629312099670e+02 5.029298018352275790e+02 5.029492096938741952e+02 5.029637768071798973e+02 5.029877513102447892e+02 5.030081790176456025e+02 5.030294005071667698e+02 5.030484080249420913e+02 5.030667195258479296e+02 5.030825728624723752e+02 5.031066045069221673e+02 5.031291955210086826e+02 5.031429519736305451e+02 3.169818670078189626e+00
1.164333685785204464e+00 5.011895075806823456e+02 5.012096593604786676e+02 5.012256634563459556e+02 5.012403533108161469e+02 5.012681202871036135e+02 5.012808663552519306e+02 5.013083177840979374e+02 5.013282917230814064e+02 5.013445995999805973e+02 5.013644176707539373e+02 5.013878729270816166e+02 5.014076971634191295e+02 5.014231987572339904e+02 5.014431764983152675e+02 5.014680616327224811e+02 5.014823847859269108e+02 5.015077604631957229e+02 5.015284463093806266e+02 5.015433669103627494e+02 5.015608144685334651e+02 5.015844551966042673e+02 5.016067577679623923e+02 5.016273207161583514e+02 5.016484203335122061e+02 5.016645503465192633e+02 5.016827184124533119e+02 5.017087619559958398e+02 5.017240450280627897e+02 5.017418157125943594e+02 5.017601262448783359e+02 5.017804384383481988e+02 5.018089682793733459e+02 5.018241322774600803e+02 5.018480453722335710e+02 5.018651913405224718e+02 5.018854198441062522e+02 5.019000634852864096e+02 5.019266215715256294e+02 5.019413709973246114e+02 5.019642656848818092e+02 5.019862365433958757e+02 5.020038146018338807e+02 5.020215923078057472e+02 5.020400712589924979e+02 5.020683211439787783e+02 5.020836081671008628e+02 5.021071131181680585e+02 5.021244062368480741e+02 5.021401847443588622e+02 5.021628091696066463e+02 5.021802206203667538e+02 5.022024275128683826e+02 5.022222590062185645e+02 5.022418045811775187e+02 5.022687329569565122e+02 5.022865492695979128e+02 5.023097227214207692e+02 5.023218174332199624e+02 5.023448339070836823e+02 5.023697288732971629e+02 5.023842906888216362e+02 5.024098717761305011e+02 5.024218299241546219e+02 5.024452667586355119e+02 5.024625141587914641e+02 5.024894013843036191e+02 5.025053813185257354e+02 5.025288293728588087e+02 5.025429809535310142e+02 5.025662109110399456e+02 5.025829094320333752e+02 5.026060359297541709e+02 5.026260138513314359e+02 5.026483076796400269e+02 5.026682359831422673e+02 5.026810642412496009e+02 5.027079149394622846e+02 5.027224217096605798e+02 5.027486963048709754e+02 5.027699654945469092e+02 5.027845543559994326e+02 5.028059511405321018e+02 5.028288373296675786e+02 5.028409370191874928e+02 5.028636697545201173e+02 5.028847982491275275e+02 5.029030058729916277e+02 5.029251303838190665e+02 5.029472658719388392e+02 5.029638725920465845e+02 5.029805631179484635e+02 5.030097649320227902e+02 5.030228509365088030e+02 5.030445376256506052e+02 5.030671946530902687e+02 5.030822236609642459e+02 5.031049462362720988e+02 5.031278236861485311e+02 3.147006133590058319e+00
1.147488791594575508e+00 5.011649663943969131e+02 5.011838408516389336e+02 5.012090109081349283e+02 5.012244823482423612e+02 5.012479913039852590e+02 5.012687487667914752e+02 5.012802715749871254e+02 5.013011127678675507e+02 5.013255957397715861e+02 5.013460708243563886e+02 5.013654798702360722e+02 5.013869908210482436e+02 5.014020514137461646e+02 5.014264228825838359e+02 5.014438997389552242e+02 5.014647149002132664e+02 5.014894885350975642e+02 5.015033948700790916e+02 5.015238944893894200e+02 5.015414738518755939e+02 5.015664784088179999e+02 5.015858471254430242e+02 5.016064530727744000e+02 5.016272355325682497e+02 5.016453712517367194e+02 5.016671908218798990e+02 5.016897292400616379e+02 5.017042039621674689e+02 5.017272341690967892e+02 5.017456582791860455e+02 5.017623188295499403e+02 5.017802286866572103e+02 5.018071557895472665e+02 5.018285739697660688e+02 5.018471654625665792e+02 5.018674372348002635e+02 5.018853201041814032e+02 5.019060423123574424e+02 5.019234200544324835e+02 5.019430670647414559e+02 5.019623392419294987e+02 5.019880084604320132e+02 5.020036746636438352e+02 5.020247211523130204e+02 5.020478537033044404e+02 5.020684804853096921e+02 5.020836133475499423e+02 5.021001477899894780e+02 5.021273933526751989e+02 5.021441830356936862e+02 5.021615408994681502e+02 5.021812866728453173e+02 5.022003751884200256e+02 5.022291578996099588e+02 5.022400249826113736e+02 5.022640323461931189e+02 5.022854797561381019e+02 5.023066598085817418e+02 5.023269430347466482e+02 5.023419373890527027e+02 5.023666111385811632e+02 5.023852800994876020e+02 5.024082627004028723e+02 5.024293780219207406e+02 5.024461417982502667e+02 5.024695044748517603e+02 5.024823890755909019e+02 5.025004486368333119e+02 5.025208329116276786e+02 5.025421531471573076e+02 5.025675980045667757e+02 5.025893201208273808e+02 5.026077902485880031e+02 5.026247440777229940e+02 5.026422264474981034e+02 5.026618425811087150e+02 5.026895710612796506e+02 5.027049362526845471e+02 5.027204392604147074e+02 5.027468831214183638e+02 5.027647584770996900e+02 5.027849516837961801e+02 5.028029893726374553e+02 5.028229708112992284e+02 5.028441531296112998e+02 5.028677556942961360e+02 5.028853697405720595e+02 5.029013246031268523e+02 5.029235538460058024e+02 5.029494368868229230e+02 5.029670087420157643e+02 5.029875554494647645e+02 5.030038126334980575e+02 5.030251533728709319e+02 5.030425262532290276e+02 5.030621271583044063e+02 5.030832379698971977e+02 5.031055697381129335e+02 3.125919871739677447e+00
1.125455303688726483e+00 5.011430310687733822e+02 5.011604477875796988e+02 5.011856757423877866e+02 5.012018451826016303e+02 5.012295516467815446e+02 5.012482142115318879e+02 5.012605627536494239e+02 5.012802043836405232e+02 5.013090258644481310e+02 5.013249632593922342e+02 5.013484655060854607e+02 5.013666342255955328e+02 5.013827546505996224e+02 5.014042622131339613e+02 5.014234192745661858e+02 5.014402176623243008e+02 5.014654261963196973e+02 5.014829746596726636e+02 5.015097765610270812e+02 5.015246535173185976e+02 5.015462416696383343e+02 5.015671362458272711e+02 5.015804567341484130e+02 5.016039970160107373e+02 5.016299871711628384e+02 5.016486448872730648e+02 5.016669692096445488e+02 5.016879845906534001e+02 5.017047442357350633e+02 5.017229860977996054e+02 5.017430549287183794e+02 5.017675701709974874e+02 5.017824045919639389e+02 5.018006713916853414e+02 5.018261544701254024e+02 5.018426164004686143e+02 5.018685543924406147e+02 5.018830627340494175e+02 5.019007419696735042e+02 5.019269006764884011e+02 5.019449365480041365e+02 5.019672294828075110e+02 5.019822270016504149e+02 5.020063787308129690e+02 5.020263721454255119e+02 5.020475410595707331e+02 5.020631734937476267e+02 5.020874927595284021e+02 5.021070609786780778e+02 5.021221999757426033e+02 5.021443699468054547e+02 5.021697468122595183e+02 5.021821928978575329e+02 5.022045827754390075e+02 5.022259015287044122e+02 5.022482606378976584e+02 5.022614184002571278e+02 5.022821341139767242e+02 5.023045997980974562e+02 5.023201246893819416e+02 5.023446235778059759e+02 5.023642354053949930e+02 5.023889591717377243e+02 5.024055572016110318e+02 5.024201164547606595e+02 5.024466642813603130e+02 5.024617821879566009e+02 5.024863924323747710e+02 5.025053302942739037e+02 5.025238635014636657e+02 5.025491505294976946e+02 5.025634676474874141e+02 5.025829824439574054e+02 5.026038869422658308e+02 5.026212333305808784e+02 5.026486170748752897e+02 5.026619476204074317e+02 5.026870959448492044e+02 5.027060994862078473e+02 5.027288024994984426e+02 5.027492857364090355e+02 5.027627471889189223e+02 5.027820889593550078e+02 5.028019485579611114e+02 5.028216241599037062e+02 5.028469206915477798e+02 5.028657012634319585e+02 5.028857019613621446e+02 5.029073164704949477e+02 5.029288788031481658e+02 5.029430781758853755e+02 5.029691280751764566e+02 5.029826896217039121e+02 5.030071771243510170e+02 5.030246560018511559e+02 5.030403540139303686e+02 5.030677786806056133e+02 5.030859895958777770e+02 3.101570286808557952e+00
1.106825597533913186e+00 5.011212300929903449e+02 5.011421624219055388e+02 5.011629888822922680e+02 5.011857797880384169e+02 5.012082466695579797e+02 5.012290225854827668e+02 5.012483046754844622e+02 5.012644759519351965e+02 5.012837699498655297e+02 5.013051470718891665e+02 5.013235293419928098e+02 5.013468824835917985e+02 5.013640922030809861e+02 5.013882966621176820e+02 5.014049002980825662e+02 5.014249542984398431e+02 5.014488089502054322e+02 5.014691851370962468e+02 5.014840056898864873e+02 5.015022190807084712e+02 5.015205801406642081e+02 5.015439276518347356e+02 5.015641746908719938e+02 5.015821976131844053e+02 5.016070919122969372e+02 5.016203918418756302e+02 5.016458674957489734e+02 5.016656549938799685e+02 5.016853917272322292e+02 5.017005022702497286e+02 5.017265580421672553e+02 5.017415354532407719e+02 5.017674402981775188e+02 5.017823081383601789e+02 5.018076593044213496e+02 5.018201592535708642e+02 5.018454472141523866e+02 5.018614441804802482e+02 5.018855627827679200e+02 5.019029918799681695e+02 5.019264067445415662e+02 5.019416956847877600e+02 5.019677677732816505e+02 5.019884653439547719e+02 5.020024686062672572e+02 5.020289142005596545e+02 5.020403220270566749e+02 5.020643103437821537e+02 5.020830944867818175e+02 5.021039898856051309e+02 5.021288164511985883e+02 5.021417984348140635e+02 5.021669247288456859e+02 5.021860411272717784e+02 5.022072497734538956e+02 5.022245013514069001e+02 5.022470579843799783e+02 5.022641915343651817e+02 5.022831529832396313e+02 5.023055671541504239e+02 5.023229144977163401e+02 5.023463277786424328e+02 5.023672141782797098e+02 5.023816490192766651e+02 5.024091018900898007e+02 5.024299723937014051e+02 5.024474242359020764e+02 5.024664449538207123e+02 5.024895817795657535e+02 5.025011636502630950e+02 5.025225354961553990e+02 5.025439640209535810e+02 5.025630442498902539e+02 5.025829692336592416e+02 5.026031535187045165e+02 5.026269034797663267e+02 5.026414602356725823e+02 5.026614600526650634e+02 5.026878549286885232e+02 5.027094576705114264e+02 5.027297007311262291e+02 5.027416729263439379e+02 5.027662859879074517e+02 5.027867176361848465e+02 5.028052143949536230e+02 5.028234631469820783e+02 5.028441461235967722e+02 5.028634573747481227e+02 5.028883614792851517e+02 5.029096086611396572e+02 5.029216488605250674e+02 5.029405145873701031e+02 5.029671514143496438e+02 5.029810262603484148e+02 5.030053148723243339e+02 5.030263895136167775e+02 5.030409702157900824e+02 5.030632364980316424e+02 3.082495446930935135e+00
1.080768100066335169e+00 5.011074811192772813e+02 5.011206290014752653e+02 5.011475462297916010e+02 5.011654115995980874e+02 5.011868753965932228e+02 5.012033763337162782e+02 5.012209291404479927e+02 5.012488827731989431e+02 5.012689490844991269e+02 5.012841123788487607e+02 5.013022260150419243e+02 5.013230320461378824e+02 5.013470258727900273e+02 5.013659982975028697e+02 5.013875715338826353e+02 5.014075519513975792e+02 5.014215211977090121e+02 5.014438599038716688e+02 5.014676776268142362e+02 5.014800105178535432e+02 5.015011004802085495e+02 5.015271159212126122e+02 5.015408241276534795e+02 5.015662994150592908e+02 5.015853769189619129e+02 5.016066047683561919e+02 5.016210268991975454e+02 5.016489013120847176e+02 5.016643550355369712e+02 5.016808547651980916e+02 5.017068593767943412e+02 5.017207885265795539e+02 5.017411061901527205e+02 5.017608198108642341e+02 5.017861469284094369e+02 5.018007513242708342e+02 5.018240016932879826e+02 5.018403318163570361e+02 5.018621517863098802e+02 5.018835273167172204e+02 5.019009726917865919e+02 5.019237035628278250e+02 5.019469876179255721e+02 5.019618554144927884e+02 5.019893170012672385e+02 5.020098918318716983e+02 5.020270528454487362e+02 5.020420884985290968e+02 5.020698316716707836e+02 5.020864848296526475e+02 5.021067388592599059e+02 5.021285008080672583e+02 5.021498040767585280e+02 5.021604624531035483e+02 5.021800576959595901e+02 5.022018997126781983e+02 5.022205675594448167e+02 5.022451182876685039e+02 5.022662546277790625e+02 5.022883757237780742e+02 5.023022944583028675e+02 5.023232446149482371e+02 5.023439177661052213e+02 5.023624267325404276e+02 5.023844422905346505e+02 5.024064784762524596e+02 5.024271259774419036e+02 5.024468825365000839e+02 5.024619716060979044e+02 5.024838587954615150e+02 5.025077778001047477e+02 5.025237416592265163e+02 5.025406316378439442e+02 5.025610676519742697e+02 5.025806428121736644e+02 5.026073406925978020e+02 5.026226758634171574e+02 5.026435930755975505e+02 5.026672023421990616e+02 5.026898913076821600e+02 5.027082914949065184e+02 5.027246496989052389e+02 5.027481717461641324e+02 5.027669427580479464e+02 5.027894665570370876e+02 5.028073448072587439e+02 5.028285578791004582e+02 5.028468306340336085e+02 5.028641316756620085e+02 5.028857802915860020e+02 5.029090358057104595e+02 5.029258808251196342e+02 5.029480413559856515e+02 5.029634652737117335e+02 5.029830706124244557e+02 5.030038836488074594e+02 5.030278027604219346e+02 5.030476926984751458e+02 3.066258671202607644e+00
1.060496729521024806e+00 5.010806027450965985e+02 5.011026463665013466e+02 5.011296011406047342e+02 5.011417390738398581e+02 5.011603726076880321e+02 5.011858613302130152e+02 5.012048330616411249e+02 5.012230471895425126e+02 5.012464378583011353e+02 5.012621185823019232e+02 5.012802215460439470e+02 5.013011561337968942e+02 5.013245487911871123e+02 5.013492516403978243e+02 5.013633735610042663e+02 5.013834821130343471e+02 5.014091571941385155e+02 5.014269866015142725e+02 5.014424542596402148e+02 5.014670648975099994e+02 5.014845011918006321e+02 5.015030857824783652e+02 5.015219851974906646e+02 5.015472207914415890e+02 5.015670537666262021e+02 5.015837380507097123e+02 5.016055059560977725e+02 5.016200919238814890e+02 5.016469238766447347e+02 5.016606376410919097e+02 5.016808314338017567e+02 5.017033984113696761e+02 5.017232849230351803e+02 5.017422915385153601e+02 5.017658374373057200e+02 5.017856500402194797e+02 5.018011762739036499e+02 5.018298583107018089e+02 5.018406712254936792e+02 5.018665892078457205e+02 5.018807042516128263e+02 5.019048727205233149e+02 5.019232041008528995e+02 5.019433808491070863e+02 5.019633928709433803e+02 5.019864051485880623e+02 5.020056568696076056e+02 5.020221678935147338e+02 5.020459519026971975e+02 5.020688952671026186e+02 5.020838922779381619e+02 5.021084873391476435e+02 5.021204957973095020e+02 5.021409284147762264e+02 5.021642955517804694e+02 5.021893262216378844e+02 5.022089831242942637e+02 5.022210319972675165e+02 5.022411461514570874e+02 5.022656989104941090e+02 5.022829884448050279e+02 5.023009731797168911e+02 5.023298225600930778e+02 5.023435685392456094e+02 5.023671098041760956e+02 5.023852805418250114e+02 5.024011763362288434e+02 5.024241786854714178e+02 5.024406236463719324e+02 5.024658084213924667e+02 5.024859075918977283e+02 5.025064007092978500e+02 5.025246955380096097e+02 5.025452735825724062e+02 5.025653167283317089e+02 5.025809264501483540e+02 5.026060669603701285e+02 5.026257417297767347e+02 5.026493147271903013e+02 5.026643480532720218e+02 5.026841431479444395e+02 5.027031503623819049e+02 5.027262901771752013e+02 5.027456340301457089e+02 5.027654093325077724e+02 5.027839340359448670e+02 5.028030713588805725e+02 5.028242991496584295e+02 5.028475135269061980e+02 5.028689064973012819e+02 5.028828074773352341e+02 5.029025287866591611e+02 5.029210489259122028e+02 5.029428952645315576e+02 5.029641382128214104e+02 5.029873940668030059e+02 5.030089846341322755e+02 5.030268168034543237e+02 3.049347845748883401e+00
1.043376673725333159e+00 5.010660479267973528e+02 5.010852392759015856e+02 5.011028119138456987e+02 5.011295167387050356e+02 5.011433147295379626e+02 5.011651601565234273e+02 5.011892165741754184e+02 5.012076851013951000e+02 5.012213034057617165e+02 5.012448805982386943e+02 5.012612528055278744e+02 5.012845525865554919e+02 5.013026195485040262e+02 5.013241352374207054e+02 5.013470725391392762e+02 5.013622401722955715e+02 5.013827936887997225e+02 5.014042126269822575e+02 5.014236751355365413e+02 5.014480491130466362e+02 5.014659531959877654e+02 5.014823328960362687e+02 5.015048246750041585e+02 5.015218020117403626e+02 5.015439579317613834e+02 5.015604612947919918e+02 5.015856080193116782e+02 5.016063545946119007e+02 5.016202959528724250e+02 5.016418544708969307e+02 5.016650296762298922e+02 5.016847436771872708e+02 5.017082490318758801e+02 5.017243673880221309e+02 5.017463168200854966e+02 5.017630265919735848e+02 5.017882058510230650e+02 5.018065487152168771e+02 5.018289075152409850e+02 5.018413525424444970e+02 5.018697462449975433e+02 5.018886010191778269e+02 5.019041009938876527e+02 5.019223785579909531e+02 5.019449469997946380e+02 5.019668359141454062e+02 5.019890897244974894e+02 5.020032364448472322e+02 5.020247799641850293e+02 5.020412343684074017e+02 5.020622345607009720e+02 5.020840079178280462e+02 5.021075483444807332e+02 5.021211010690775538e+02 5.021478093693726805e+02 5.021678991051529124e+02 5.021869428169853222e+02 5.022001451636942306e+02 5.022221093142210293e+02 5.022452816226877417e+02 5.022692606908627795e+02 5.022880563168551475e+02 5.023084826069784867e+02 5.023220301319100258e+02 5.023452782209906786e+02 5.023654486291948160e+02 5.023840254413685216e+02 5.024010473131897925e+02 5.024267240616248387e+02 5.024403749672941899e+02 5.024655064036580825e+02 5.024895941771223420e+02 5.025099869024506916e+02 5.025256640321439363e+02 5.025451766412303414e+02 5.025634916946547150e+02 5.025884762064692382e+02 5.026040466424617534e+02 5.026228135520233877e+02 5.026431594731023438e+02 5.026654956843884179e+02 5.026802095577253340e+02 5.027097255598289962e+02 5.027208255113747555e+02 5.027413327635633209e+02 5.027670160721167463e+02 5.027850496698482630e+02 5.028054084265235701e+02 5.028202707060166290e+02 5.028475514803130864e+02 5.028618045729629102e+02 5.028876439526598574e+02 5.029021958716411405e+02 5.029276720941529106e+02 5.029437767326227799e+02 5.029692947122960049e+02 5.029885159826912400e+02 5.030075848650812418e+02 3.023950821598524907e+00
1.024287772958673903e+00 5.010476942119100272e+02 5.010665701785886199e+02 5.010874604841794167e+02 5.011009655253990331e+02 5.011227093924592282e+02 5.011499962111864193e+02 5.011608160515502846e+02 5.011837639757952161e+02 5.012001953254338673e+02 5.012233984899253869e+02 5.012412887582814847e+02 5.012637824493996277e+02 5.012873710549319526e+02 5.013005710470077361e+02 5.013272233389340045e+02 5.013493713937189113e+02 5.013601428145699970e+02 5.013869131624937268e+02 5.014022244420804668e+02 5.014281853647858611e+02 5.014403257610830451e+02 5.014661626718546472e+02 5.014801798527036567e+02 5.015054454720241779e+02 5.015206888113170862e+02 5.015419083655667691e+02 5.015683015384287273e+02 5.015882060215242859e+02 5.016074130151253598e+02 5.016272640465596737e+02 5.016496943891481806e+02 5.016678134642131113e+02 5.016853251144618753e+02 5.017024018611662655e+02 5.017208840615198255e+02 5.017421914936729763e+02 5.017643960809429586e+02 5.017886781078209992e+02 5.018098532059580066e+02 5.018268114722644100e+02 5.018490010386104814e+02 5.018617197011229791e+02 5.018884955192370967e+02 5.019017544847505974e+02 5.019286387204902553e+02 5.019425737028483923e+02 5.019650077027503698e+02 5.019806486046032887e+02 5.020026311879306036e+02 5.020273815732922458e+02 5.020407603216357302e+02 5.020611779320548180e+02 5.020813010194795538e+02 5.021008292022312958e+02 5.021223394042831387e+02 5.021439345529479965e+02 5.021639313325835019e+02 5.021868813408289611e+02 5.022070243256310391e+02 5.022233667803880621e+02 5.022498552169306549e+02 5.022624089223743908e+02 5.022888807522608658e+02 5.023039144938326217e+02 5.023286238629908098e+02 5.023416454644921032e+02 5.023609413617963355e+02 5.023802880863894984e+02 5.024046267770044665e+02 5.024234117613609101e+02 5.024413881175698293e+02 5.024618303172634342e+02 5.024898981144404502e+02 5.025088687554143689e+02 5.025287321895820583e+02 5.025473285519137789e+02 5.025695531614838956e+02 5.025838926251867065e+02 5.026047157546944959e+02 5.026227912167702812e+02 5.026412604928452765e+02 5.026667591465791816e+02 5.026856833203992210e+02 5.027092869372668815e+02 5.027253464299956249e+02 5.027497983162561468e+02 5.027618776608904341e+02 5.027871683827700053e+02 5.028049369409114888e+02 5.028239506156424454e+02 5.028486533880536058e+02 5.028635995813335171e+02 5.028816882760933140e+02 5.029048916157717031e+02 5.029201966481368800e+02 5.029452939218076608e+02 5.029611215709741145e+02 5.029889759594279894e+02 3.001828547957255289e+00
1.001289815604240019e+00 5.010291828079888319e+02 5.010461528943421285e+02 5.010651600226884170e+02 5.010828219921180562e+02 5.011077673961863752e+02 5.011293154868242254e+02 5.011476432141209330e+02 5.011690294410265665e+02 5.011833052311113761e+02 5.012043987253474029e+02 5.012298523893918514e+02 5.012474698277416678e+02 5.012607338159006645e+02 5.012863992852011279e+02 5.013072927999073158e+02 5.013292473410471075e+02 5.013473799434267448e+02 5.013610766497727127e+02 5.013812504281245310e+02 5.014003066975496381e+02 5.014217491804161568e+02 5.014448006255441328e+02 5.014600995192564596e+02 5.014871239865681218e+02 5.015090344145993413e+02 5.015286383946445312e+02 5.015490277536566737e+02 5.015634587424181063e+02 5.015877931479477638e+02 5.016066903737330449e+02 5.016203330016206223e+02 5.016450257618361093e+02 5.016691886781743506e+02 5.016801449073286108e+02 5.017057634163836042e+02 5.017228993712260490e+02 5.017474996529172699e+02 5.017607643025986590e+02 5.017838089107627297e+02 5.018083393906297829e+02 5.018281743742585945e+02 5.018488070337896829e+02 5.018692134306234038e+02 5.018818062859804741e+02 5.019095768118042429e+02 5.019268797705551606e+02 5.019456179728068150e+02 5.019617415772746654e+02 5.019810650679918922e+02 5.020036490454868954e+02 5.020275847611198401e+02 5.020498702431783045e+02 5.020657685972688000e+02 5.020812856452422466e+02 5.021019727659340219e+02 5.021220532047502161e+02 5.021491500426521384e+02 5.021685687344012194e+02 5.021852416498061302e+02 5.022088490618353376e+02 5.022297632051187293e+02 5.022402936003313130e+02 5.022694277780899483e+02 5.022818252340902632e+02 5.023093837317128987e+02 5.023267103338209267e+02 5.023457251284693257e+02 5.023697109346164211e+02 5.023881065461671938e+02 5.024079614570840135e+02 5.024214038172168557e+02 5.024406665135230128e+02 5.024641502579452208e+02 5.024852297352310870e+02 5.025012784785694748e+02 5.025270610755186453e+02 5.025484641611695338e+02 5.025673502560590009e+02 5.025885660303247846e+02 5.026017344982810755e+02 5.026224701249882969e+02 5.026484832211173170e+02 5.026612937521260278e+02 5.026896855522664964e+02 5.027081042371447666e+02 5.027217118003615042e+02 5.027404066877687114e+02 5.027603395926547591e+02 5.027858429014254966e+02 5.028040970625585828e+02 5.028235740628790040e+02 5.028495241379042682e+02 5.028639406075925535e+02 5.028862910043959005e+02 5.029014190346096029e+02 5.029294470874438616e+02 5.029438381209806721e+02 5.029696069488003332e+02 2.983093468531329950e+00
9.806548447405171176e-01 5.010036997529978748e+02 5.010277769188263051e+02 5.010497269739955755e+02 5.010689981445615331e+02 5.010815039802507727e+02 5.011051879162543514e+02 5.011204202576803368e+02 5.011465584504059052e+02 5.011612701803641130e+02 5.011851954189922935e+02 5.012025436185131184e+02 5.012253333861044098e+02 5.012443670327828045e+02 5.012699122598655208e+02 5.012849514073892010e+02 5.013099195522421496e+02 5.013288775477078616e+02 5.013461942704624903e+02 5.013631307588307209e+02 5.013850704235259172e+02 5.014092979183284911e+02 5.014247812238883171e+02 5.014491675057789166e+02 5.014643043696291329e+02 5.014842026460212310e+02 5.015007798288030472e+02 5.015263456125743460e+02 5.015492709790283357e+02 5.015600206049861640e+02 5.015862177446385317e+02 5.016088366659474218e+02 5.016274257548441824e+02 5.016441814615595831e+02 5.016671915214304818e+02 5.016871938080545874e+02 5.017081190204780228e+02 5.017282603996330863e+02 5.017423867750556497e+02 5.017686569299953021e+02 5.017819455096585557e+02 5.018075036678239371e+02 5.018271842191883252e+02 5.018442197277328773e+02 5.018651969389733836e+02 5.018849741406178282e+02 5.019060248042983403e+02 5.019272881600151095e+02 5.019484112782332659e+02 5.019632062094265734e+02 5.019809734955446174e+02 5.020029417821205584e+02 5.020235618440751750e+02 5.020446956344067644e+02 5.020637785338777803e+02 5.020825698652586198e+02 5.021069515709880307e+02 5.021244114680587813e+02 5.021482747994366491e+02 5.021628250892837286e+02 5.021823721622784547e+02 5.022018491959316862e+02 5.022250240874590759e+02 5.022496697247709676e+02 5.022673101029674285e+02 5.022801217700433085e+02 5.023088624363196573e+02 5.023222546384897669e+02 5.023481197925303263e+02 5.023663387159799640e+02 5.023866180568927575e+02 5.024069464307294766e+02 5.024293266665816304e+02 5.024412831606980490e+02 5.024688508948090089e+02 5.024852623883056140e+02 5.025050138149518943e+02 5.025288047221939678e+02 5.025431225387669656e+02 5.025659553857547621e+02 5.025897321515252543e+02 5.026079305024715040e+02 5.026289943394201600e+02 5.026409745826239828e+02 5.026651033872541916e+02 5.026889219561103346e+02 5.027004508398064218e+02 5.027240550992368071e+02 5.027495171437375348e+02 5.027610180885080808e+02 5.027864537828434663e+02 5.028049912766856551e+02 5.028267004109859499e+02 5.028401919149405899e+02 5.028645591886032662e+02 5.028853647881444999e+02 5.029028672203166366e+02 5.029200500258530155e+02 5.029463465518878138e+02 2.961833823077454131e+00
9.647904141496750352e-01 5.009859080342613993e+02 5.010037764949310031e+02 5.010219758059089941e+02 5.010410516245606800e+02 5.010689575566795497e+02 5.010810887681655572e+02 5.011064738410336759e+02 5.011280615133434821e+02 5.011438803795039121e+02 5.011645773257808401e+02 5.011843985939942172e+02 5.012073345122831824e+02 5.012232827776581416e+02 5.012462739935286322e+02 5.012639962646784397e+02 5.012893781906241770e+02 5.013090504337503717e+02 5.013244174906490684e+02 5.013491791508261031e+02 5.013633554631379070e+02 5.013810944355628294e+02 5.014072190992795868e+02 5.014256136718440757e+02 5.014423499772094033e+02 5.014604588398671581e+02 5.014808521583249785e+02 5.015045200390104014e+02 5.015205107467655807e+02 5.015462776164742991e+02 5.015673371660439557e+02 5.015851293285379029e+02 5.016062804047259647e+02 5.016290822654237900e+02 5.016468965035211909e+02 5.016677091163422801e+02 5.016890642046657263e+02 5.017052399819771722e+02 5.017292878656251673e+02 5.017446605975339935e+02 5.017683439476002150e+02 5.017891038153157410e+02 5.018092125744959731e+02 5.018271059373474259e+02 5.018404244800328229e+02 5.018657640096765817e+02 5.018850496541659822e+02 5.019008224871481048e+02 5.019227296428937279e+02 5.019452782709316807e+02 5.019652651436158521e+02 5.019856376329636873e+02 5.020036127580216316e+02 5.020248804476825057e+02 5.020461046423947664e+02 5.020655639184709003e+02 5.020886631543651788e+02 5.021013951889041209e+02 5.021216273080491987e+02 5.021456758175228288e+02 5.021620374118726318e+02 5.021837043574679456e+02 5.022033042399239093e+02 5.022206423959887616e+02 5.022466948083937837e+02 5.022600649964412582e+02 5.022889389784934906e+02 5.023009018779630992e+02 5.023257315537682075e+02 5.023491559204689452e+02 5.023627079618254925e+02 5.023877527764997240e+02 5.024096556905335547e+02 5.024264375397367530e+02 5.024482246283402560e+02 5.024606462500448174e+02 5.024826903952036332e+02 5.025039052214212916e+02 5.025214973379063963e+02 5.025449972068170155e+02 5.025661108939140149e+02 5.025823881754175204e+02 5.026003167571534505e+02 5.026251798593280000e+02 5.026414717297082007e+02 5.026642075558035572e+02 5.026821955239819886e+02 5.027010112986184254e+02 5.027202798128494123e+02 5.027433085979851057e+02 5.027636766260030186e+02 5.027882948698235168e+02 5.028007578031374010e+02 5.028230192220352706e+02 5.028447486758669811e+02 5.028692504501703979e+02 5.028827300768964506e+02 5.029063668557177493e+02 5.029209566932245821e+02 2.948478362332007663e+00
9.429902125950823111e-01 5.009685336908629552e+02 5.009855957132581352e+02 5.010003470671777563e+02 5.010272664851181048e+02 5.010486337866116742e+02 5.010675822637480792e+02 5.010838400254853013e+02 5.011028973406301361e+02 5.011234453533390365e+02 5.011451558541392046e+02 5.011693689412234107e+02 5.011809424559290846e+02 5.012000020827036337e+02 5.012277537950702140e+02 5.012448402791915214e+02 5.012647667265110272e+02 5.012839469175091835e+02 5.013082808438321081e+02 5.013213052006851740e+02 5.013437790076259830e+02 5.013632039527686288e+02 5.013858612902465666e+02 5.014066219467970882e+02 5.014296993044803230e+02 5.014440499618502258e+02 5.014646507504292572e+02 5.014850982991247292e+02 5.015019121811010905e+02 5.015272802397981877e+02 5.015491434752435111e+02 5.015660468307277711e+02 5.015898422973256174e+02 5.016034413962587450e+02 5.016289908829807587e+02 5.016431825744472803e+02 5.016674101399505616e+02 5.016856237911775906e+02 5.017024396411467251e+02 5.017240819288438161e+02 5.017401096807347471e+02 5.017627729373438115e+02 5.017849248128969748e+02 5.018081336962908381e+02 5.018282862379855942e+02 5.018450521794922565e+02 5.018642099551142906e+02 5.018846433746394951e+02 5.019053197912461997e+02 5.019206071552880530e+02 5.019456726845203889e+02 5.019662765982237147e+02 5.019839360985941994e+02 5.020076689199030398e+02 5.020258298275041966e+02 5.020427130732063574e+02 5.020622452939663276e+02 5.020889337075522576e+02 5.021017631865582302e+02 5.021289389008141484e+02 5.021498247409032842e+02 5.021667527594557328e+02 5.021807549129522954e+02 5.022050223585447952e+02 5.022252106864678467e+02 5.022458865194827808e+02 5.022657461611262306e+02 5.022863750931547315e+02 5.023055737492421713e+02 5.023208524113570661e+02 5.023437359926380168e+02 5.023685318966174691e+02 5.023829842898574611e+02 5.024082101333270316e+02 5.024223822529077665e+02 5.024420646782573954e+02 5.024620874778051416e+02 5.024868434080747193e+02 5.025048851078486223e+02 5.025203392600311076e+02 5.025435651392116370e+02 5.025687925060080943e+02 5.025850650750041382e+02 5.026051402730625455e+02 5.026290134612546581e+02 5.026484404296064668e+02 5.026680908582202960e+02 5.026853471116507990e+02 5.027054831365350651e+02 5.027230796635919887e+02 5.027468326978953996e+02 5.027604291921054482e+02 5.027895362851020877e+02 5.028001714554899308e+02 5.028293083505816412e+02 5.028460209432585657e+02 5.028665807235014995e+02 5.028829525095655413e+02 5.029092301587634211e+02 2.928392502346042647e+00
9.236762399499945930e-01 5.009496390567089179e+02 5.009658402168099656e+02 5.009815199534041881e+02 5.010008410551249085e+02 5.010284870986664600e+02 5.010403425307739553e+02 5.010645586421667872e+02 5.010825698812001860e+02 5.011049111860852463e+02 5.011279220170630992e+02 5.011412558874797014e+02 5.011647791547663928e+02 5.011840728296615453e+02 5.012026567159211368e+02 5.012229322498936313e+02 5.012436420026647852e+02 5.012662066184571472e+02 5.012825591858536427e+02 5.013091596575937388e+02 5.013210083846082625e+02 5.013434275997444729e+02 5.013679814402158286e+02 5.013883068630072444e+02 5.014066382904762236e+02 5.014229121092109267e+02 5.014448170624331169e+02 5.014633569190355047e+02 5.014890242394664028e+02 5.015017099548398960e+02 5.015285791199645473e+02 5.015403949324658583e+02 5.015674354271831703e+02 5.015884625234776877e+02 5.016086118994921890e+02 5.016233635630148910e+02 5.016420807716150421e+02 5.016689482628141832e+02 5.016842247405558055e+02 5.017032949023212609e+02 5.017216898542047829e+02 5.017422366156130806e+02 5.017601469863553802e+02 5.017804133765905590e+02 5.018063893702900486e+02 5.018263885703277651e+02 5.018460514011641180e+02 5.018656008590750162e+02 5.018834171260624544e+02 5.019069804177572678e+02 5.019285919082974488e+02 5.019447655696279753e+02 5.019629308156308980e+02 5.019880459591665272e+02 5.020016667115249902e+02 5.020299044895912743e+02 5.020425659977895521e+02 5.020678708316095253e+02 5.020835154350096445e+02 5.021070123199395994e+02 5.021201493544716641e+02 5.021425248899095095e+02 5.021639610515244385e+02 5.021866227581003841e+02 5.022079742402600573e+02 5.022226767587626455e+02 5.022451229295592725e+02 5.022654213225987405e+02 5.022878739305723457e+02 5.023045538990280079e+02 5.023239532106387628e+02 5.023474059805275260e+02 5.023602309247269773e+02 5.023817550984317108e+02 5.024094661917728786e+02 5.024240822360143852e+02 5.024438942652611217e+02 5.024604201639720031e+02 5.024818293951470878e+02 5.025000787720490507e+02 5.025277781262061580e+02 5.025458547929848123e+02 5.025630700514926161e+02 5.025842508183862378e+02 5.026074016294944613e+02 5.026290557791395486e+02 5.026424046688504177e+02 5.026605421071231490e+02 5.026871167858699891e+02 5.027082755168689232e+02 5.027213493413388505e+02 5.027413070185766060e+02 5.027614962379082613e+02 5.027884253507435233e+02 5.028009543943834956e+02 5.028239394733107019e+02 5.028416779819463613e+02 5.028692434832892104e+02 5.028870062397372180e+02 2.904306901218162373e+00
9.041048782409918383e-01 5.009259181030658965e+02 5.009458606996351477e+02 5.009636615154818173e+02 5.009879249965593999e+02 5.010090651812246847e+02 5.010236031600822457e+02 5.010490016885257205e+02 5.010679235056372249e+02 5.010848590355881811e+02 5.011059077084437945e+02 5.011290664318466384e+02 5.011407610300747706e+02 5.011630244291133636e+02 5.011857784909536235e+02 5.012030404381998210e+02 5.012294327544315706e+02 5.012473990349296287e+02 5.012615136760049950e+02 5.012805405672700090e+02 5.013011570187276789e+02 5.013290321015724089e+02 5.013416872946822878e+02 5.013655558538526975e+02 5.013868957083907958e+02 5.014036838531188778e+02 5.014203321137850367e+02 5.014410083265631783e+02 5.014665844824448868e+02 5.014815826924850057e+02 5.015095946762821768e+02 5.015201591224767412e+02 5.015495629148113039e+02 5.015672379545666786e+02 5.015872333199694140e+02 5.016015453885079296e+02 5.016274814964414759e+02 5.016403583952447889e+02 5.016667860339051117e+02 5.016877549151740823e+02 5.017072881572066763e+02 5.017285668928577707e+02 5.017463440672987076e+02 5.017625731526958361e+02 5.017809291355517303e+02 5.018016445475068963e+02 5.018213899617319385e+02 5.018429730185009703e+02 5.018608849457223755e+02 5.018857203660877531e+02 5.019041997667667374e+02 5.019286981181669489e+02 5.019477891074952822e+02 5.019692234203038765e+02 5.019872824738467898e+02 5.020015040503321870e+02 5.020221454138314243e+02 5.020413139580175539e+02 5.020614747175101229e+02 5.020894814152046592e+02 5.021035592310316247e+02 5.021226195374476902e+02 5.021438629029900085e+02 5.021611904082257638e+02 5.021818998784399355e+02 5.022076290880463603e+02 5.022212418268215401e+02 5.022428596109207319e+02 5.022601494838155531e+02 5.022828146169410388e+02 5.023025055710406832e+02 5.023250017144024469e+02 5.023452410387724854e+02 5.023683212531118443e+02 5.023888371233332464e+02 5.024071184949540338e+02 5.024280731299039644e+02 5.024457057224802270e+02 5.024637619404571183e+02 5.024894992799679585e+02 5.025027458212909437e+02 5.025229306191086494e+02 5.025430843367947773e+02 5.025624712483332246e+02 5.025824144597613099e+02 5.026036606050748787e+02 5.026292368171216367e+02 5.026481503077730508e+02 5.026622932690116272e+02 5.026809640979691380e+02 5.027087821722683429e+02 5.027276257940941946e+02 5.027404105066212310e+02 5.027609061359271436e+02 5.027863936095965300e+02 5.028024820569975191e+02 5.028268894743736723e+02 5.028473209578950218e+02 5.028656769638042761e+02 2.887567771270761696e+00
8.832606082311463824e-01 5.009071326716892258e+02 5.009271045901820685e+02 5.009426172023649428e+02 5.009601257818941349e+02 5.009861863084244078e+02 5.010083903467397590e+02 5.010250581664175229e+02 5.010400913491117194e+02 5.010673304520529996e+02 5.010801662175908859e+02 5.011004386152580423e+02 5.011207150350027746e+02 5.011415401960712188e+02 5.011631126298956360e+02 5.011800319240115300e+02 5.012063165356041168e+02 5.012292626476693727e+02 5.012421566038876222e+02 5.012667167857237587e+02 5.012840179708336450e+02 5.013091033446347637e+02 5.013215345786077819e+02 5.013474174492849897e+02 5.013677878163535411e+02 5.013892177706027837e+02 5.014057476797033246e+02 5.014247343596524615e+02 5.014421613028814022e+02 5.014639177005548163e+02 5.014824048335467523e+02 5.015048070242987706e+02 5.015233385452655170e+02 5.015498113315500746e+02 5.015611358387585028e+02 5.015878758929724199e+02 5.016002661999833094e+02 5.016288114601832717e+02 5.016481717494584700e+02 5.016641802848283760e+02 5.016811383695395534e+02 5.017002498385865010e+02 5.017280972722138017e+02 5.017445213379086226e+02 5.017602702772272210e+02 5.017896193074965367e+02 5.018095990577271550e+02 5.018262333993184257e+02 5.018494151683240716e+02 5.018667861738025522e+02 5.018800801972870431e+02 5.019030178078480162e+02 5.019291240171365871e+02 5.019466351579665115e+02 5.019687744549440254e+02 5.019828486303674140e+02 5.020066959678622993e+02 5.020263987242930739e+02 5.020420097339249992e+02 5.020655067482765617e+02 5.020810368776072892e+02 5.021050892695689072e+02 5.021292687842096711e+02 5.021433558690017662e+02 5.021648167176768993e+02 5.021856125885623783e+02 5.022028029402308675e+02 5.022279423731297356e+02 5.022497727153670439e+02 5.022668440037932669e+02 5.022817796185405541e+02 5.023065788717129863e+02 5.023200401293855748e+02 5.023436422861753954e+02 5.023620646400251530e+02 5.023886757386484305e+02 5.024005765981137301e+02 5.024274904709345151e+02 5.024421099417050982e+02 5.024608059638480313e+02 5.024847892494058783e+02 5.025093921732710669e+02 5.025207396827719890e+02 5.025404107446180433e+02 5.025680187612495047e+02 5.025806600339693091e+02 5.026011820323612938e+02 5.026289625842837268e+02 5.026441833401636927e+02 5.026618561249667891e+02 5.026806356936043017e+02 5.027089203616869213e+02 5.027222367648714112e+02 5.027456217036877320e+02 5.027652791382313353e+02 5.027804362865336998e+02 5.028077681220007662e+02 5.028274419506890354e+02 5.028451930883759360e+02 2.866162151314910922e+00
8.626398309786649232e-01 5.008865730102749581e+02 5.009049240780420860e+02 5.009200155801898404e+02 5.009435550245660806e+02 5.009661553323178396e+02 5.009889179815899070e+02 5.010053109028189056e+02 5.010229649485453933e+02 5.010498549462818687e+02 5.010677801539715119e+02 5.010832719459546638e+02 5.011025179610552982e+02 5.011275396895400718e+02 5.011461175394898646e+02 5.011658989318916042e+02 5.011890844922603492e+02 5.012033375114938849e+02 5.012281966249668699e+02 5.012417156117252262e+02 5.012677255863959545e+02 5.012876727384363562e+02 5.013067980356163957e+02 5.013237491151699032e+02 5.013496573422161191e+02 5.013672767402771342e+02 5.013847443124046777e+02 5.014054372012442968e+02 5.014251374569686845e+02 5.014444834211841453e+02 5.014658179804951601e+02 5.014845295307569586e+02 5.015038217948761599e+02 5.015247538898366315e+02 5.015484456935384401e+02 5.015607835035091853e+02 5.015861993862216650e+02 5.016006296914158611e+02 5.016204891290507817e+02 5.016456466395233065e+02 5.016606601384980308e+02 5.016897127541355985e+02 5.017088562996245287e+02 5.017278721044332315e+02 5.017431215690493786e+02 5.017665556416702657e+02 5.017881439971818054e+02 5.018007465861194305e+02 5.018297099988793093e+02 5.018456558780882233e+02 5.018650922182746967e+02 5.018856685094257273e+02 5.019009334049000017e+02 5.019251241320249051e+02 5.019490334717743281e+02 5.019614756084600913e+02 5.019855784871994047e+02 5.020061024284186146e+02 5.020200502389319581e+02 5.020464473130018064e+02 5.020600903415042922e+02 5.020874467188579615e+02 5.021090552685444095e+02 5.021226306161962043e+02 5.021444988763088304e+02 5.021630861761746019e+02 5.021897766738858309e+02 5.022005806256980804e+02 5.022272340154367498e+02 5.022461350393797375e+02 5.022648132455040013e+02 5.022827647107760640e+02 5.023057302109677948e+02 5.023209195467087511e+02 5.023496682086023384e+02 5.023609652102140330e+02 5.023874620881366582e+02 5.024010767570016469e+02 5.024275618669046821e+02 5.024459307267094914e+02 5.024612113930882629e+02 5.024801455560921113e+02 5.025083438115712511e+02 5.025243166251098614e+02 5.025446628397506288e+02 5.025669014313344860e+02 5.025890006498918865e+02 5.026010263463802517e+02 5.026299059269737199e+02 5.026451193023240194e+02 5.026637530404043446e+02 5.026878685470338723e+02 5.027059656333001385e+02 5.027262337167584860e+02 5.027457282817910595e+02 5.027616419981565059e+02 5.027883576185683978e+02 5.028049112417377842e+02 5.028231847993983479e+02 2.845199293444039323e+00
8.447850761396709096e-01 5.008600305179148222e+02 5.008823952725637696e+02 5.009060024267195672e+02 5.009239628702997038e+02 5.009434581730938021e+02 5.009696848098897135e+02 5.009886053792720872e+02 5.010084454487522407e+02 5.010291371383444812e+02 5.010477314418199057e+02 5.010648767765724187e+02 5.010841210569482769e+02 5.011039257417480144e+02 5.011213869211825909e+02 5.011494914530917981e+02 5.011609513928431170e+02 5.011852427619019750e+02 5.012022596673134558e+02 5.012229023288206804e+02 5.012432784388624327e+02 5.012668145804707933e+02 5.012832704436792142e+02 5.013075163703352928e+02 5.013234205752116850e+02 5.013488789297742869e+02 5.013665988873841002e+02 5.013878534848186064e+02 5.014090571313556666e+02 5.014271721157409161e+02 5.014475361712687800e+02 5.014620168679680887e+02 5.014896264061005695e+02 5.015005085619123975e+02 5.015282429297403155e+02 5.015424182522829142e+02 5.015686813604866643e+02 5.015897229946710922e+02 5.016006098891447209e+02 5.016252081764064314e+02 5.016473493102110410e+02 5.016677128817663629e+02 5.016888471541507215e+02 5.017002590614351334e+02 5.017234688853569082e+02 5.017427947037629679e+02 5.017691946703465646e+02 5.017863417931642402e+02 5.018059922184175434e+02 5.018287142400512266e+02 5.018420141437051711e+02 5.018642606880747508e+02 5.018818615420289007e+02 5.019081055687693151e+02 5.019240925993760243e+02 5.019468980814863244e+02 5.019651677197185791e+02 5.019859447846937996e+02 5.020080286231841455e+02 5.020272675100752053e+02 5.020462132457045641e+02 5.020633081091722829e+02 5.020831420281188002e+02 5.021029107692317552e+02 5.021229339533064149e+02 5.021482184296530704e+02 5.021666615842056558e+02 5.021896044762877978e+02 5.022032033605038350e+02 5.022211033252452808e+02 5.022487915655395909e+02 5.022695168957801570e+02 5.022890872026251259e+02 5.023017570043799083e+02 5.023284783722389193e+02 5.023477616424717098e+02 5.023667316204144981e+02 5.023847403953423623e+02 5.024048438517087902e+02 5.024278024139634340e+02 5.024411388466909898e+02 5.024605256898184962e+02 5.024802941199664019e+02 5.025026953337103919e+02 5.025227818005534459e+02 5.025460618817597265e+02 5.025657654789040976e+02 5.025875309331144081e+02 5.026065946350971672e+02 5.026257238977945576e+02 5.026457177368080806e+02 5.026600771064530591e+02 5.026803699727170169e+02 5.027067783567459287e+02 5.027210230199297030e+02 5.027423248437980305e+02 5.027609323807780015e+02 5.027864622109557899e+02 5.028077969614720359e+02 2.827825485392041038e+00
8.259151478241103517e-01 5.008476518963727813e+02 5.008647455242822844e+02 5.008864683630588956e+02 5.009027970555789580e+02 5.009216320673067457e+02 5.009427255192852044e+02 5.009675878953489132e+02 5.009835824844822696e+02 5.010006635856631192e+02 5.010251662855213795e+02 5.010474814341710612e+02 5.010688141302861141e+02 5.010817340211640953e+02 5.011043805364110426e+02 5.011208961602898739e+02 5.011448327620166197e+02 5.011695962344003306e+02 5.011897517379947544e+02 5.012035148957373281e+02 5.012229097314020692e+02 5.012412650381804156e+02 5.012669998565378364e+02 5.012842316561497000e+02 5.013096261268836997e+02 5.013204062444194165e+02 5.013493068084165429e+02 5.013666049521682453e+02 5.013881949988465863e+02 5.014091744611872628e+02 5.014235972403960204e+02 5.014424989760711924e+02 5.014638930218802102e+02 5.014899824941144288e+02 5.015004289424927038e+02 5.015285228787832921e+02 5.015471568291765720e+02 5.015605264987796659e+02 5.015866777025844954e+02 5.016095322579475919e+02 5.016201955429063446e+02 5.016447809945088352e+02 5.016688838218668707e+02 5.016847030888934000e+02 5.017014080068416888e+02 5.017289220466536790e+02 5.017488929990446422e+02 5.017635891735891960e+02 5.017838189601385466e+02 5.018093966498674945e+02 5.018292757386610674e+02 5.018486336779217254e+02 5.018667399767666097e+02 5.018853858796416034e+02 5.019097828805438439e+02 5.019286207727507190e+02 5.019415878972828864e+02 5.019694848740347197e+02 5.019835218307362084e+02 5.020060980140577271e+02 5.020215969954617208e+02 5.020473827157547930e+02 5.020635657766334816e+02 5.020834741624034336e+02 5.021045066163668480e+02 5.021253776893531722e+02 5.021460188532715847e+02 5.021662880609313220e+02 5.021801001681287175e+02 5.022053778208177164e+02 5.022241310369878988e+02 5.022449848590975421e+02 5.022634994781040518e+02 5.022839418598238126e+02 5.023005476769296251e+02 5.023297001175019432e+02 5.023442407999340276e+02 5.023645141506888763e+02 5.023884569340582402e+02 5.024041385463921188e+02 5.024210829592681762e+02 5.024460861756227246e+02 5.024649584984749140e+02 5.024808877944745973e+02 5.025072670081331125e+02 5.025247192598833976e+02 5.025423792698259149e+02 5.025697482151348936e+02 5.025803727782801502e+02 5.026019517019155955e+02 5.026211282473340702e+02 5.026490117650812408e+02 5.026606729772278754e+02 5.026851638843548926e+02 5.027009031431786070e+02 5.027225087769375591e+02 5.027492981157914187e+02 5.027693996563263568e+02 5.027869816063692383e+02 2.802777010749735176e+00
8.090096679082281472e-01 5.008206920503428705e+02 5.008418934183524129e+02 5.008672201135462387e+02 5.008846127382332725e+02 5.009045758012798046e+02 5.009296761029320919e+02 5.009448467948969892e+02 5.009641819664456079e+02 5.009805870629843412e+02 5.010043431669848815e+02 5.010289158968342349e+02 5.010411993943262132e+02 5.010649874609599692e+02 5.010819904596070842e+02 5.011096561004941350e+02 5.011215978387254495e+02 5.011415191252011141e+02 5.011633902046559683e+02 5.011891353744167077e+02 5.012094579701490602e+02 5.012272068855070302e+02 5.012466406360815654e+02 5.012668429708751887e+02 5.012881903509273229e+02 5.013026165120797941e+02 5.013297797940962255e+02 5.013445500470079423e+02 5.013667642183414728e+02 5.013897978549472896e+02 5.014035969640668213e+02 5.014221082926512167e+02 5.014477776463097598e+02 5.014670249057344336e+02 5.014877375216619271e+02 5.015021179229498216e+02 5.015244937109425791e+02 5.015450909384633178e+02 5.015636719078146939e+02 5.015884336370070287e+02 5.016031316186669073e+02 5.016228527529295320e+02 5.016421517471422362e+02 5.016670881397570838e+02 5.016884452063153503e+02 5.017076105617045982e+02 5.017229552254038936e+02 5.017460551570800931e+02 5.017675319803811931e+02 5.017835874072366096e+02 5.018001070910078738e+02 5.018240141579777855e+02 5.018467093347563264e+02 5.018665909534062166e+02 5.018818320035078386e+02 5.019074910455407803e+02 5.019261701671793503e+02 5.019471584110500544e+02 5.019627555799100378e+02 5.019843508515838266e+02 5.020090996782145112e+02 5.020257027906880580e+02 5.020484257461270658e+02 5.020647171193023723e+02 5.020800690016358203e+02 5.021019465694596420e+02 5.021259607538564751e+02 5.021408952502961824e+02 5.021678327183326473e+02 5.021870899733639817e+02 5.022068269349796878e+02 5.022297613277210644e+02 5.022477019891058490e+02 5.022660868777370524e+02 5.022833197203077020e+02 5.023010941212326657e+02 5.023237666955910186e+02 5.023443027911951617e+02 5.023690912245194795e+02 5.023823454875785046e+02 5.024054108071578639e+02 5.024212434180906257e+02 5.024488494660486140e+02 5.024668344726611622e+02 5.024886043832443647e+02 5.025029005335543957e+02 5.025228281904351775e+02 5.025402458952382858e+02 5.025687702030434139e+02 5.025837978814394660e+02 5.026064113920430714e+02 5.026235999901658715e+02 5.026495252759268055e+02 5.026654867517424350e+02 5.026833376219975662e+02 5.027035770673140291e+02 5.027271762754062365e+02 5.027477043360059383e+02 5.027686813757885602e+02 2.782086981919055901e+00
7.847154386952296390e-01 5.008080448928980672e+02 5.008232535884974368e+02 5.008442225036675381e+02 5.008613768672816491e+02 5.008865424663665635e+02 5.009085685187106947e+02 5.009264734150617642e+02 5.009485079911562480e+02 5.009684082763469064e+02 5.009813177728731830e+02 5.010037240708582544e+02 5.010274410207504161e+02 5.010485304339541131e+02 5.010692879622494615e+02 5.010853271551221724e+02 5.011098836462969643e+02 5.011257331302167586e+02 5.011470015432050786e+02 5.011678392260961346e+02 5.011812960131872501e+02 5.012096853742463054e+02 5.012268215934307705e+02 5.012455358872866213e+02 5.012662412298802792e+02 5.012836513646467438e+02 5.013034899659188000e+02 5.013216123959918491e+02 5.013432412674557099e+02 5.013646624112112136e+02 5.013875219598294848e+02 5.014013663083784422e+02 5.014203164961730295e+02 5.014433773652191348e+02 5.014648718129421923e+02 5.014841388172039842e+02 5.015028748003348369e+02 5.015235389907832655e+02 5.015460201786542029e+02 5.015601199022792684e+02 5.015807578099875741e+02 5.016020909987810796e+02 5.016288398782603508e+02 5.016470602942641790e+02 5.016601508701588727e+02 5.016804280097134097e+02 5.017027738094350298e+02 5.017270240685857630e+02 5.017493984068748318e+02 5.017621200293312995e+02 5.017849982130701960e+02 5.018053569262131077e+02 5.018241084183200655e+02 5.018473392141601153e+02 5.018680250799257010e+02 5.018868936282763116e+02 5.019085880443428778e+02 5.019234322976928411e+02 5.019414733855145414e+02 5.019631522075492285e+02 5.019860881640014441e+02 5.020016082891688143e+02 5.020229330838866986e+02 5.020451191015982317e+02 5.020687830712818140e+02 5.020889254832287065e+02 5.021008878757223215e+02 5.021209783644789013e+02 5.021471374577064921e+02 5.021675026134283257e+02 5.021858050468662213e+02 5.022079709890525692e+02 5.022221721638973690e+02 5.022426701389067034e+02 5.022671044014670656e+02 5.022814027264912511e+02 5.023057015273871002e+02 5.023204802220940905e+02 5.023434103633201744e+02 5.023601318780493443e+02 5.023849266088119521e+02 5.024004204034116583e+02 5.024204998360774539e+02 5.024451610696153239e+02 5.024634734447020037e+02 5.024817835097105103e+02 5.025022040171236313e+02 5.025227654352393074e+02 5.025469994543112193e+02 5.025682160691510489e+02 5.025865400646281387e+02 5.026091774050992171e+02 5.026259160414521148e+02 5.026475534154548654e+02 5.026686230281439975e+02 5.026898769223251406e+02 5.027011561381609681e+02 5.027285516008942636e+02 5.027415491767451954e+02 2.764302771832424011e+00
7.603096764780222783e-01 5.007871495038474450e+02 5.008073127311493522e+02 5.008288610716174389e+02 5.008480759436790777e+02 5.008671630927921115e+02 5.008833545884685350e+02 5.009017202288741828e+02 5.009203209354197384e+02 5.009486721944529677e+02 5.009624876470532513e+02 5.009812851424381392e+02 5.010053402228493837e+02 5.010226910523645074e+02 5.010463821891726184e+02 5.010699012313075968e+02 5.010842283440484835e+02 5.011057099981636043e+02 5.011201390444803678e+02 5.011450524483332742e+02 5.011646242140661798e+02 5.011869947825790064e+02 5.012025583226678691e+02 5.012252014996599314e+02 5.012409364983306546e+02 5.012625660089915982e+02 5.012865764119825940e+02 5.013078239290786655e+02 5.013227723998246574e+02 5.013433636489166929e+02 5.013640046759326765e+02 5.013847177858410760e+02 5.014082064762807249e+02 5.014225348075965485e+02 5.014410972321085183e+02 5.014648953963235272e+02 5.014834410603994002e+02 5.015011350532877827e+02 5.015226556651370515e+02 5.015478175771644942e+02 5.015686275094356574e+02 5.015854223502310560e+02 5.016088598631246214e+02 5.016291674503854665e+02 5.016494581961908352e+02 5.016605342791870044e+02 5.016872763043697319e+02 5.017092335449207781e+02 5.017205488929105286e+02 5.017431733480520393e+02 5.017695659313147871e+02 5.017861915163280742e+02 5.018024979003741919e+02 5.018290015221886051e+02 5.018493638766177583e+02 5.018680038185818262e+02 5.018893176148766884e+02 5.019040411832763766e+02 5.019231625364377010e+02 5.019419341620769046e+02 5.019649646086697317e+02 5.019807436614711378e+02 5.020064544961687147e+02 5.020233120637639104e+02 5.020433811138289002e+02 5.020669515655923192e+02 5.020898505313209057e+02 5.021049597513622302e+02 5.021295504450841918e+02 5.021468860961435325e+02 5.021630201206262427e+02 5.021864031267825226e+02 5.022038926106660597e+02 5.022297951133697325e+02 5.022408713843574901e+02 5.022637534146596749e+02 5.022802273244742537e+02 5.023075233577633867e+02 5.023292117028273651e+02 5.023497467507110628e+02 5.023602682183681623e+02 5.023873677542937344e+02 5.024096022151170473e+02 5.024243501125196758e+02 5.024453849923145867e+02 5.024629064229076789e+02 5.024842617294693810e+02 5.025064407806075337e+02 5.025292353592017207e+02 5.025485770985718545e+02 5.025633950162435326e+02 5.025801934039553771e+02 5.026037099769822589e+02 5.026224095326128918e+02 5.026462172362209344e+02 5.026674466302471842e+02 5.026884746412664526e+02 5.027014220949297396e+02 5.027241891759662167e+02 2.742427392960625987e+00
7.474942977702871971e-01 5.007629522653456888e+02 5.007865473174503563e+02 5.008028954375427588e+02 5.008209510615463955e+02 5.008435181730752674e+02 5.008683897853787812e+02 5.008811027223848669e+02 5.009085045876038293e+02 5.009211396321069856e+02 5.009409175897253590e+02 5.009680465166504177e+02 5.009810122099142404e+02 5.010064883261439945e+02 5.010239243096305017e+02 5.010484466247534101e+02 5.010606030371778843e+02 5.010817794958622358e+02 5.011065502248753205e+02 5.011251448437830049e+02 5.011489389695298087e+02 5.011614594012787620e+02 5.011885785829099405e+02 5.012019172328757008e+02 5.012242790070674232e+02 5.012429242430225145e+02 5.012646074146844057e+02 5.012868064459283914e+02 5.013024644349336540e+02 5.013249261216395212e+02 5.013441002600645220e+02 5.013600407114731183e+02 5.013830867674614638e+02 5.014067114293122813e+02 5.014232153035399620e+02 5.014429795756795443e+02 5.014662197799025307e+02 5.014836728787589095e+02 5.015045258721175401e+02 5.015206712506177951e+02 5.015425775578437424e+02 5.015636728740366834e+02 5.015842761684771176e+02 5.016088090184820771e+02 5.016207262886629223e+02 5.016423314089522023e+02 5.016615352282505000e+02 5.016814628005892018e+02 5.017079233119505943e+02 5.017299182642274786e+02 5.017457396390771578e+02 5.017622431721507610e+02 5.017860416952590299e+02 5.018046491649492395e+02 5.018282065820718572e+02 5.018409438002569800e+02 5.018655470456092758e+02 5.018858332372011546e+02 5.019067466993827225e+02 5.019238945278484039e+02 5.019455618996738053e+02 5.019629971654620704e+02 5.019844965714605109e+02 5.020050676494978461e+02 5.020211820162237473e+02 5.020407258459932791e+02 5.020692769324908227e+02 5.020845191511862140e+02 5.021075062169799139e+02 5.021298576071127968e+02 5.021434708570120620e+02 5.021645121370799529e+02 5.021830994337311722e+02 5.022055568779274495e+02 5.022298223399520793e+02 5.022457121116912049e+02 5.022694476690953138e+02 5.022873407839366564e+02 5.023053339382025229e+02 5.023231404693725040e+02 5.023477239225292692e+02 5.023617615674947388e+02 5.023879315756428241e+02 5.024080506682066130e+02 5.024265573449077920e+02 5.024480320838763419e+02 5.024696673227909969e+02 5.024891070554889438e+02 5.025023331625750416e+02 5.025208227464320316e+02 5.025443483167168210e+02 5.025677682170447724e+02 5.025877724620320350e+02 5.026078212383456503e+02 5.026270674629860196e+02 5.026400854009771706e+02 5.026624877802751143e+02 5.026879397970947707e+02 5.027080151546551292e+02 2.721740335600927985e+00
7.255381772041731292e-01 5.007411178088613610e+02 5.007607676200405535e+02 5.007832416684421446e+02 5.008098682364680485e+02 5.008282310746965322e+02 5.008483083822297885e+02 5.008661708939756636e+02 5.008848553054131685e+02 5.009055929874389221e+02 5.009276217952080401e+02 5.009436451981791834e+02 5.009635674506157557e+02 5.009840943744909509e+02 5.010010423867932445e+02 5.010297479029724741e+02 5.010438993609804470e+02 5.010603018621664546e+02 5.010856464845287519e+02 5.011033612370105743e+02 5.011222566258504116e+02 5.011472497830319526e+02 5.011657358156808755e+02 5.011818757083227069e+02 5.012081903334520234e+02 5.012297183250086050e+02 5.012447593474906284e+02 5.012699368601729475e+02 5.012878142693866153e+02 5.013054333857102733e+02 5.013262941783700626e+02 5.013402402850970248e+02 5.013600223901948993e+02 5.013807252802715198e+02 5.014070270144830488e+02 5.014285653224853263e+02 5.014452469203070564e+02 5.014631807025729699e+02 5.014887169925071930e+02 5.015021600557427632e+02 5.015247854466099398e+02 5.015472489537251590e+02 5.015638425153948674e+02 5.015823804858844710e+02 5.016023300945508936e+02 5.016248271562021159e+02 5.016440033825708724e+02 5.016610647070459095e+02 5.016852666853368987e+02 5.017009214766205218e+02 5.017263926265277405e+02 5.017450157244747970e+02 5.017657743373702601e+02 5.017831906133130815e+02 5.018066863373542787e+02 5.018218222677897415e+02 5.018435913076609154e+02 5.018668384102086293e+02 5.018841930368495241e+02 5.019067733219584966e+02 5.019256059400284471e+02 5.019472799031502745e+02 5.019642132378571091e+02 5.019804018682780224e+02 5.020085792861542018e+02 5.020264634866824167e+02 5.020438937726061113e+02 5.020662086380801838e+02 5.020815702174915032e+02 5.021065638719911703e+02 5.021218067094549156e+02 5.021476951121869092e+02 5.021658343229256616e+02 5.021899522745994773e+02 5.022023659770152335e+02 5.022209192788671999e+02 5.022452969527064965e+02 5.022668765057599103e+02 5.022854070200029923e+02 5.023057617272982611e+02 5.023233523424293026e+02 5.023406796232652027e+02 5.023636710809803958e+02 5.023864500110915969e+02 5.024054880376008896e+02 5.024293982053466152e+02 5.024442670689491024e+02 5.024652846912633208e+02 5.024841776155158755e+02 5.025035681570905126e+02 5.025218515870714100e+02 5.025432473605144423e+02 5.025683964992791175e+02 5.025867387759416829e+02 5.026063041343129498e+02 5.026260381760494056e+02 5.026487238095152748e+02 5.026686047697355662e+02 5.026891270497077358e+02 2.701773745726026910e+00
7.081230915461702580e-01 5.007212035752331190e+02 5.007437528319514399e+02 5.007682887416428343e+02 5.007883645996906239e+02 5.008080678574671083e+02 5.008256255859578800e+02 5.008405930277666016e+02 5.008620347195479212e+02 5.008870424540926933e+02 5.009024761302022739e+02 5.009287697422441852e+02 5.009400297543129454e+02 5.009619362320038363e+02 5.009849426534233316e+02 5.010085671165854819e+02 5.010281330245760500e+02 5.010496142178596983e+02 5.010680568083131448e+02 5.010839660648329641e+02 5.011035092937025297e+02 5.011260697052262003e+02 5.011468643860234806e+02 5.011687996033257377e+02 5.011817067655509845e+02 5.012043898425478119e+02 5.012219439837571144e+02 5.012462402938814421e+02 5.012611030101035681e+02 5.012843755543414090e+02 5.013095210437140850e+02 5.013265058940316408e+02 5.013471995955910643e+02 5.013636085167898386e+02 5.013870234311298759e+02 5.014026674433409312e+02 5.014232572777895598e+02 5.014403519660478423e+02 5.014636807899132691e+02 5.014871805177965030e+02 5.015012185936628271e+02 5.015265998571417185e+02 5.015488749095448497e+02 5.015670753851344443e+02 5.015849568163548042e+02 5.016097167452135750e+02 5.016245384800586180e+02 5.016409899063816056e+02 5.016614350352402880e+02 5.016807697390056546e+02 5.017051555909833382e+02 5.017212469961523880e+02 5.017443947280908674e+02 5.017608384885680834e+02 5.017836279226418696e+02 5.018020919529932371e+02 5.018299915102146542e+02 5.018414934801540994e+02 5.018640641210297986e+02 5.018890451941126685e+02 5.019012512543623643e+02 5.019205789474471544e+02 5.019414694362699265e+02 5.019650464447437912e+02 5.019819568481577221e+02 5.020076563073415059e+02 5.020246602675995291e+02 5.020465934192228019e+02 5.020659838421786390e+02 5.020832782670976826e+02 5.021032131485403056e+02 5.021258213926635108e+02 5.021433327967267246e+02 5.021661507159868165e+02 5.021889579087201128e+02 5.022078490300319800e+02 5.022230880821776964e+02 5.022494935227679775e+02 5.022663493433224744e+02 5.022803087273386495e+02 5.023052417080606915e+02 5.023206455390005090e+02 5.023437655666848514e+02 5.023677868054697910e+02 5.023866804733796130e+02 5.024069784603921107e+02 5.024235460988583100e+02 5.024415384507031490e+02 5.024695391310099808e+02 5.024819379754683837e+02 5.025058641491485218e+02 5.025260891812051796e+02 5.025464595960209522e+02 5.025698114888024861e+02 5.025840973520406578e+02 5.026003316403314329e+02 5.026208180610253180e+02 5.026448392504466369e+02 5.026603187312155114e+02 2.684533637130032346e+00
6.801341851910303049e-01 5.007063768695698514e+02 5.007240932929478276e+02 5.007444859468695313e+02 5.007672139614223283e+02 5.007819817227510271e+02 5.008081864118075828e+02 5.008294899043493729e+02 5.008418701500933139e+02 5.008667270151623256e+02 5.008845321561589117e+02 5.009078231856115622e+02 5.009266284858277913e+02 5.009467199711270951e+02 5.009608112270763058e+02 5.009898312000336205e+02 5.010027124459626293e+02 5.010201439867734621e+02 5.010498753052349912e+02 5.010689682820236612e+02 5.010840337319503988e+02 5.011004359460840192e+02 5.011244875197982083e+02 5.011455998638635378e+02 5.011688568683171638e+02 5.011851883600821793e+02 5.012093648155479286e+02 5.012291618105496127e+02 5.012472383158744265e+02 5.012625126363615209e+02 5.012800322533698250e+02 5.013031504648870396e+02 5.013208906698378087e+02 5.013462597246503947e+02 5.013625447019665557e+02 5.013814973500256542e+02 5.014037445843360388e+02 5.014229064943522758e+02 5.014419912171110241e+02 5.014640483935856423e+02 5.014874834097154803e+02 5.015068100263296742e+02 5.015212247687599074e+02 5.015424258169809377e+02 5.015657405685840899e+02 5.015853951979818817e+02 5.016050214878222846e+02 5.016280640114821949e+02 5.016422913913745560e+02 5.016642399805417085e+02 5.016817233310169399e+02 5.017082168705263712e+02 5.017258102460730242e+02 5.017472609752793460e+02 5.017672448452357798e+02 5.017814819976173908e+02 5.018014117661104478e+02 5.018226835150085208e+02 5.018453623303651057e+02 5.018674092413428411e+02 5.018871312464473249e+02 5.019030064498494426e+02 5.019279018264001024e+02 5.019498338288283321e+02 5.019687385458977928e+02 5.019834070961391603e+02 5.020082854271308292e+02 5.020251901074919942e+02 5.020462656006237125e+02 5.020679107753321659e+02 5.020873803825888331e+02 5.021043629649316244e+02 5.021273313031678640e+02 5.021468070100497130e+02 5.021623062122330339e+02 5.021829823512881035e+02 5.022079383447497207e+02 5.022296366932736760e+02 5.022455466622425320e+02 5.022645702769129343e+02 5.022886994880433349e+02 5.023029546461777386e+02 5.023264331106702230e+02 5.023472329919531489e+02 5.023663732704467861e+02 5.023834480964356999e+02 5.024054491599023891e+02 5.024204984166144072e+02 5.024423309721785813e+02 5.024696538952022706e+02 5.024814541465823936e+02 5.025030721916385801e+02 5.025205641057710295e+02 5.025401508312690453e+02 5.025631465719010862e+02 5.025878173480342070e+02 5.026059259170626774e+02 5.026270476728861922e+02 5.026448737989557003e+02 2.662776309839987476e+00
6.625410323325965356e-01 5.006859074060312196e+02 5.007040280007166189e+02 5.007298487135448113e+02 5.007464720150655353e+02 5.007613469604949046e+02 5.007832648099105199e+02 5.008009196994955232e+02 5.008214131331208705e+02 5.008429959807830869e+02 5.008615873826182678e+02 5.008829832350972993e+02 5.009005651732808246e+02 5.009299154564579908e+02 5.009488907959202493e+02 5.009610603300313301e+02 5.009851047322816839e+02 5.010071825702538604e+02 5.010218559496908028e+02 5.010435933246757259e+02 5.010690722052115120e+02 5.010833451217913534e+02 5.011029401728609969e+02 5.011273413045917096e+02 5.011430189741076902e+02 5.011625369574039155e+02 5.011875706466992710e+02 5.012068590398189372e+02 5.012276244861307077e+02 5.012489139603007970e+02 5.012601642251038925e+02 5.012861423019314770e+02 5.013045548148269859e+02 5.013286469518750437e+02 5.013474451293778316e+02 5.013624501938302274e+02 5.013837438406510500e+02 5.014027827424606585e+02 5.014222397411897987e+02 5.014440693406145328e+02 5.014655392276428643e+02 5.014826726226277742e+02 5.015050263601993379e+02 5.015244421761082094e+02 5.015482150405337620e+02 5.015683776810557220e+02 5.015897235293037966e+02 5.016040151381033070e+02 5.016256469827403066e+02 5.016429313372341880e+02 5.016613733399172474e+02 5.016830104645267738e+02 5.017032987705792948e+02 5.017226521675096933e+02 5.017423636004493233e+02 5.017670931849257272e+02 5.017842227115596074e+02 5.018055214376391291e+02 5.018228622393641558e+02 5.018480149578322767e+02 5.018659108612559407e+02 5.018862045328883710e+02 5.019040900598507164e+02 5.019230501275692973e+02 5.019439714619391566e+02 5.019677353495060288e+02 5.019875746349433712e+02 5.020047655967944706e+02 5.020216064823989655e+02 5.020411305826388570e+02 5.020688029779224735e+02 5.020815698201313353e+02 5.021007869320367263e+02 5.021253898040726540e+02 5.021472599613930470e+02 5.021605374348942519e+02 5.021864693266780364e+02 5.022064511271904053e+02 5.022271987638964674e+02 5.022435765028068317e+02 5.022666464719094392e+02 5.022885906709641972e+02 5.023021045761572623e+02 5.023296214410011657e+02 5.023468580405896660e+02 5.023672550839787050e+02 5.023812319989904722e+02 5.024047458429865856e+02 5.024200664434294481e+02 5.024451183970145394e+02 5.024677378636807816e+02 5.024806406686956848e+02 5.025066200355450405e+02 5.025299576716097363e+02 5.025435089327987725e+02 5.025642356645511200e+02 5.025892393906958091e+02 5.026043061878056051e+02 5.026208540664314910e+02 2.646750208996811793e+00
6.473668584606451226e-01 5.006687187012984737e+02 5.006860203901341038e+02 5.007030981203749889e+02 5.007286534337865191e+02 5.007498369137155692e+02 5.007663917341413935e+02 5.007843764310512142e+02 5.008082158731145341e+02 5.008254067063654134e+02 5.008445793933491359e+02 5.008681886014340989e+02 5.008823440851904252e+02 5.009098550542094586e+02 5.009287043383112632e+02 5.009442752624494801e+02 5.009620962787250278e+02 5.009884586678389269e+02 5.010026459606083904e+02 5.010222002980498814e+02 5.010410644111040597e+02 5.010693459047977854e+02 5.010820273401866416e+02 5.011090331581559099e+02 5.011261724884577688e+02 5.011440246271328647e+02 5.011656903295634606e+02 5.011883027918803464e+02 5.012018063917983000e+02 5.012290446953874721e+02 5.012469776139117812e+02 5.012665246459100672e+02 5.012833778987935602e+02 5.013038459947915726e+02 5.013218170043277837e+02 5.013462966025114724e+02 5.013674260034953249e+02 5.013824818076204224e+02 5.014031449145809916e+02 5.014228079635980180e+02 5.014446344809382481e+02 5.014627859480839902e+02 5.014800774849982190e+02 5.015063964632619786e+02 5.015246817543514908e+02 5.015473864496607348e+02 5.015644841388102577e+02 5.015803202415023065e+02 5.016041465666794466e+02 5.016203702411244763e+02 5.016456574516570868e+02 5.016666184135307276e+02 5.016833036056030437e+02 5.017025015143678957e+02 5.017223823229621757e+02 5.017426770389921558e+02 5.017675242112074443e+02 5.017866159716766106e+02 5.018062658828512212e+02 5.018202228091648180e+02 5.018495522183313255e+02 5.018635015613598966e+02 5.018870391162948295e+02 5.019063676185837721e+02 5.019243766825604780e+02 5.019447728540913545e+02 5.019603386650395009e+02 5.019824077642226143e+02 5.020075354910244414e+02 5.020213963739048495e+02 5.020464246975985247e+02 5.020669370777406471e+02 5.020864121040960413e+02 5.021038644957720862e+02 5.021272736395463312e+02 5.021418847151877571e+02 5.021656198485160303e+02 5.021897009353503449e+02 5.022084408618543989e+02 5.022225733719379264e+02 5.022443010952313216e+02 5.022641378982352194e+02 5.022853606394895110e+02 5.023075573013834969e+02 5.023232276849533946e+02 5.023438132565420347e+02 5.023658336491259888e+02 5.023883783315854998e+02 5.024000414077113987e+02 5.024215111794274549e+02 5.024488423864233368e+02 5.024690733419560615e+02 5.024863455635266973e+02 5.025096160923420712e+02 5.025269736044986644e+02 5.025438916398098854e+02 5.025661214896884417e+02 5.025874047866117849e+02 5.026065271463473323e+02 2.626751368326402325e+00
