ncols 100
nrows 38
xllcorner 0
yllcorner 380
cellsize 10.0
5.761017691059439928e-03 5.000007655337002689e+03 5.000002079404674078e+03 5.000008866858194779e+03 5.000003381681233805e+03 5.000001454431063394e+03 5.000008735141717807e+03 5.000008142153220433e+03 5.000004280573355572e+03 5.000000481260549350e+03 5.000002980640124406e+03 5.000006404973673853e+03 5.000007311169554669e+03 5.000004587170058585e+03 5.000002605741783555e+03 5.000006864039152788e+03 5.000001473474514569e+03 5.000005806368946651e+03 5.000002724150806898e+03 5.000007607826035382e+03 5.000008689911536749e+03 5.000008777037267464e+03 5.000004434199372554e+03 5.000005217515603363e+03 5.000008868031121892e+03 5.000005437137043373e+03 5.000006022540195772e+03 5.000004321281463490e+03 5.000008659816775435e+03 5.000006337084620100e+03 5.000008573911229178e+03 5.000004123688773689e+03 5.000009186038269036e+03 5.000002497416401638e+03 5.000005799106467748e+03 5.000009019869389704e+03 5.000009597430163012e+03 5.000008697341789230e+03 5.000004688574437751e+03 5.000005277674796162e+03 5.000002009341079429e+03 5.000008490895166688e+03 5.000000935138808018e+03 5.000006991527248829e+03 5.000005012031233491e+03 5.000004775191806402e+03 5.000008511032183378e+03 5.000004054648709825e+03 5.000003598744381634e+03 5.000000002528501682e+03 5.000005469838913086e+03 5.000001229478290043e+03 5.000008711789060726e+03 5.000003531080830726e+03 5.000001491160101068e+03 5.000006060745208742e+03 5.000007458437471541e+03 5.000002718363204622e+03 5.000002680054389202e+03 5.000003142315875266e+03 5.000000761629629778e+03 5.000002520232376810e+03 5.000000814094377347e+03 5.000007686954782912e+03 5.000004638025471650e+03 5.000001083442715753e+03 5.000007038139492579e+03 5.000008375198864087e+03 5.000006924644016181e+03 5.000000630293451650e+03 5.000005601669006865e+03 5.000004123678039832e+03 5.000002311052223376e+03 5.000001369174629872e+03 5.000007901178229076e+03 5.000001166931461739e+03 5.000001635255363908e+03 5.000001001787714813e+03 5.000005973023355182e+03 5.000002466012061632e+03 5.000009020933023749e+03 5.000005486369066602e+03 5.000001464667740038e+03 5.000003412996034058e+03 5.000000410965107221e+03 5.000009931828476510e+03 5.000006070456067391e+03 5.000004692805287050e+03 5.000008840311051244e+03 5.000002997004618010e+03 5.000001003224333544e+03 5.000002282620667756e+03 5.000009588865717888e+03 5.000007959881993884e+03 5.000007476025035430e+03 5.000006164262093080e+03 5.000008776936574577e+03 5.000001998357132834e+03 5.000006052971489225e+03 8.341927387507542396e-03
6.143988739078018804e-03 5.000009972710882721e+03 5.000006478468377281e+03 5.000006588876359274e+03 5.000006537309219311e+03 5.000001118195730669e+03 5.000003912939060683e+03 5.000003954619942306e+03 5.000008158634605934e+03 5.000005145804012500e+03 5.000009885221987133e+03 5.000004830592471990e+03 5.000006889169672831e+03 5.000002024581337537e+03 5.000005387576877183e+03 5.000006714091368849e+03 5.000006039793756827e+03 5.000008183018984710e+03 5.000003944760714148e+03 5.000006844759282103e+03 5.000005152320489287e+03 5.000009719265136482e+03 5.000003492707845908e+03 5.000003775813180255e+03 5.000005171533499379e+03 5.000002727749571022e+03 5.000000540659963917e+03 5.000003714629274327e+03 5.000004103374402803e+03 5.000009161454941932e+03 5.000000676924717482e+03 5.000002305069830982e+03 5.000005373208238780e+03 5.000000254589151155e+03 5.000005904087518502e+03 5.000000773648343966e+03 5.000007609049674102e+03 5.000007321538781980e+03 5.000000171079486790e+03 5.000009369520823384e+03 5.000000141555055961e+03 5.000001726121761749e+03 5.000003199501397830e+03 5.000005825858976095e+03 5.000009420910982044e+03 5.000006619444558055e+03 5.000006343707598717e+03 5.000007390258092528e+03 5.000003098918410615e+03 5.000007384496981103e+03 5.000008602356509982e+03 5.000002365889047724e+03 5.000004482379456022e+03 5.000009634398598791e+03 5.000007201966540379e+03 5.000000747532121750e+03 5.000007157126778111e+03 5.000002236073216409e+03 5.000001437789781448e+03 5.000007516248390857e+03 5.000005952883078862e+03 5.000000560029047847e+03 5.000001291657289585e+03 5.000002403618668723e+03 5.000008215583844503e+03 5.000004720240945971e+03 5.000006222027437616e+03 5.000003162772917676e+03 5.000004895070453131e+03 5.000003469189120551e+03 5.000000947630564042e+03 5.000000856011757605e+03 5.000003326060340441e+03 5.000003749128686650e+03 5.000006594875998417e+03 5.000005156247956620e+03 5.000004989377945094e+03 5.000009691665345599e+03 5.000007703688653237e+03 5.000009240136283552e+03 5.000003837474032480e+03 5.000004311201269047e+03 5.000007219820070532e+03 5.000009416311828318e+03 5.000007725768471573e+03 5.000009683834994576e+03 5.000004809190844753e+03 5.000008700862714250e+03 5.000000542029021744e+03 5.000009076022786758e+03 5.000009302463171480e+03 5.000002560741511843e+03 5.000005777213304100e+03 5.000003240191765144e+03 5.000000291927524813e+03 5.000000113324140329e+03 5.000007640134212124e+03 5.000000242510048338e+03 5.000005875312937860e+03 7.831611074704692560e-03
8.661755544491242173e-03 5.000002153239234758e+03 5.000002712920910199e+03 5.000001490545222623e+03 5.000004002220746770e+03 5.000007182849049059e+03 5.000002651392819644e+03 5.000005645177144288e+03 5.000007887542180470e+03 5.000001774991404091e+03 5.000009657323461397e+03 5.000005738010480854e+03 5.000008499405012117e+03 5.000006723733966282e+03 5.000008972552528576e+03 5.000009938323126335e+03 5.000004982108858712e+03 5.000009745242224199e+03 5.000005607602845885e+03 5.000004027808486171e+03 5.000001303422710407e+03 5.000006452263898609e+03 5.000005726346475058e+03 5.000008026465544390e+03 5.000000099522349046e+03 5.000002126612528627e+03 5.000007592446795570e+03 5.000009585785952368e+03 5.000006605797867451e+03 5.000005311782759236e+03 5.000005578079944826e+03 5.000003709914230967e+03 5.000001729579122184e+03 5.000006724322907758e+03 5.000005995014645123e+03 5.000000157581306667e+03 5.000008208702082811e+03 5.000003008099261933e+03 5.000005466497484122e+03 5.000000606169343882e+03 5.000006504621274871e+03 5.000009848498046267e+03 5.000001045242279361e+03 5.000007475765527488e+03 5.000004965181130501e+03 5.000006579732080354e+03 5.000000516417135259e+03 5.000000249857812378e+03 5.000008928881021347e+03 5.000006098229729105e+03 5.000002870931220968e+03 5.000008516329504346e+03 5.000002180488674639e+03 5.000004229359843521e+03 5.000006152981110063e+03 5.000008611176549493e+03 5.000007121510821889e+03 5.000006525842541123e+03 5.000000796426131274e+03 5.000009149134286417e+03 5.000004442984514753e+03 5.000005273444409795e+03 5.000003202182273526e+03 5.000007568273360448e+03 5.000003491735791613e+03 5.000005845870065968e+03 5.000008662847418236e+03 5.000003971082128373e+03 5.000001401905126841e+03 5.000004988968522412e+03 5.000005101568121972e+03 5.000008501808914843e+03 5.000001086982896595e+03 5.000001288229521379e+03 5.000003913308622941e+03 5.000006767634114112e+03 5.000003154030402584e+03 5.000002549455479311e+03 5.000008386522476030e+03 5.000008443814830571e+03 5.000001622598734684e+03 5.000006415124184059e+03 5.000002296988099260e+03 5.000002376281096986e+03 5.000009028924536324e+03 5.000002993118366248e+03 5.000004434885876435e+03 5.000009811833308049e+03 5.000009936179938450e+03 5.000007046073701531e+03 5.000007513664331782e+03 5.000005832550016748e+03 5.000002313122958185e+03 5.000008136141519572e+03 5.000005948848421212e+03 5.000001592554540366e+03 5.000004238100056682e+03 5.000002530448346988e+03 5.000009117846908339e+03 5.957945874493564449e-03
2.185676900312675218e-03 5.000009916954817527e+03 5.000003856296187223e+03 5.000004672167110584e+03 5.000000336456229888e+03 5.000008749527611144e+03 5.000004657222392780e+03 5.000000271373148280e+03 5.000005256461375211e+03 5.000008327634232046e+03 5.000007349915120358e+03 5.000004995042922019e+03 5.000009202892257235e+03 5.000002822851118253e+03 5.000007505547481742e+03 5.000001806201456930e+03 5.000005951511677267e+03 5.000005174464038646e+03 5.000009664682758739e+03 5.000001627881951208e+03 5.000003031821637705e+03 5.000005697067682377e+03 5.000000688398519742e+03 5.000006842386595963e+03 5.000001972507821847e+03 5.000001700927095953e+03 5.000005260008245386e+03 5.000007048997060338e+03 5.000001153862716819e+03 5.000002939741092632e+03 5.000008092792444586e+03 5.000007132708073186e+03 5.000002289854544870e+03 5.000000888295171535e+03 5.000008576612422985e+03 5.000002689154604923e+03 5.000008637435165838e+03 5.000002384552753028e+03 5.000000712302059583e+03 5.000005243433529358e+03 5.000009587568267307e+03 5.000001910942462018e+03 5.000007750374081297e+03 5.000000161370536262e+03 5.000003966784267504e+03 5.000009566423822434e+03 5.000005140795679836e+03 5.000008336856142705e+03 5.000009545399815579e+03 5.000008341639004357e+03 5.000008234983134571e+03 5.000003373531608304e+03 5.000009929645662851e+03 5.000001348529678580e+03 5.000003231595594116e+03 5.000004122942622416e+03 5.000008993857130918e+03 5.000007622774015545e+03 5.000008251793755335e+03 5.000009051680723132e+03 5.000008465418175547e+03 5.000007354991663306e+03 5.000004048667858115e+03 5.000006677918492642e+03 5.000004713246175015e+03 5.000006312951501968e+03 5.000005071992582998e+03 5.000009250952352886e+03 5.000003867123291457e+03 5.000004868574103966e+03 5.000004655159113099e+03 5.000007698368949605e+03 5.000002619060841425e+03 5.000009416407503522e+03 5.000001787943407180e+03 5.000005725212204197e+03 5.000000097123163869e+03 5.000002000263652008e+03 5.000001402671570759e+03 5.000009145658559646e+03 5.000001225251206961e+03 5.000005190508476517e+03 5.000003342995380990e+03 5.000003423847979320e+03 5.000001678628294030e+03 5.000003313013051411e+03 5.000008861629644343e+03 5.000006051263214431e+03 5.000004006219742223e+03 5.000005253806755718e+03 5.000001431275616596e+03 5.000002611201552099e+03 5.000009532127458442e+03 5.000002209833723100e+03 5.000007426305235640e+03 5.000008109901599710e+03 5.000008257808378403e+03 5.000003052739351006e+03 5.000009599916807019e+03 2.394016282083850748e-03
1.399754622417326245e-03 5.000003507173944854e+03 5.000000337019848303e+03 5.000004172351039415e+03 5.000003179994946549e+03 5.000000709633292900e+03 5.000003559707777640e+03 5.000000540762548553e+03 5.000005630830549308e+03 5.000005971743488772e+03 5.000002766542085737e+03 5.000005809689671878e+03 5.000006344785664623e+03 5.000005831218413732e+03 5.000004828646216993e+03 5.000005470396872624e+03 5.000007082994779012e+03 5.000007867081456425e+03 5.000001394001148583e+03 5.000009097743229177e+03 5.000005331896059033e+03 5.000007779948542520e+03 5.000000300035260807e+03 5.000000523186003193e+03 5.000004847804199017e+03 5.000007961165685629e+03 5.000000161522371855e+03 5.000008318883542415e+03 5.000004340972040154e+03 5.000002956455435196e+03 5.000003238345142563e+03 5.000001442131918338e+03 5.000004504810442086e+03 5.000006191063323968e+03 5.000005323362030140e+03 5.000009079357269002e+03 5.000007892819365225e+03 5.000009129549232057e+03 5.000002255938416056e+03 5.000001274441271562e+03 5.000009430363374122e+03 5.000009482464718531e+03 5.000005186285878153e+03 5.000003854225959913e+03 5.000007924816714876e+03 5.000004130726069889e+03 5.000003054080914808e+03 5.000006064453721592e+03 5.000007232817264594e+03 5.000006158421258078e+03 5.000000580421881750e+03 5.000008206859189158e+03 5.000001749695104081e+03 5.000005814519613523e+03 5.000009683575555755e+03 5.000009622467930967e+03 5.000005214326027271e+03 5.000007214478692731e+03 5.000006489917583167e+03 5.000006140414468973e+03 5.000006991923981332e+03 5.000006291367821177e+03 5.000003305219073809e+03 5.000000130555778014e+03 5.000001376205944325e+03 5.000005952413964224e+03 5.000004127961551603e+03 5.000001866500053438e+03 5.000002927853856818e+03 5.000007162873993366e+03 5.000007783823227328e+03 5.000001967706624782e+03 5.000008374719722269e+03 5.000005856080735612e+03 5.000003918294343748e+03 5.000006393279309123e+03 5.000008323988605298e+03 5.000004101810543943e+03 5.000006765049673959e+03 5.000001297277861340e+03 5.000009169282027869e+03 5.000000433176594925e+03 5.000001043674143148e+03 5.000008432016253209e+03 5.000005427243426311e+03 5.000006415518547328e+03 5.000004958441531926e+03 5.000006062400572773e+03 5.000006429163187931e+03 5.000009931064874763e+03 5.000001405347265973e+03 5.000004919477828480e+03 5.000006586148245333e+03 5.000000264257972049e+03 5.000005606920709397e+03 5.000009923428987349e+03 5.000006612387366658e+03 5.000001911651406772e+03 5.000005828728854794e+03 5.238728345284702527e-03
8.409328479363716025e-03 5.000005290451736983e+03 5.000008123131786306e+03 5.000003583517838706e+03 5.000005195773963351e+03 5.000006518664031319e+03 5.000003059251117520e+03 5.000004180055625511e+03 5.000006809003060880e+03 5.000007549060312158e+03 5.000008618495986411e+03 5.000009376055653775e+03 5.000001613626927792e+03 5.000002232985744740e+03 5.000005922600300437e+03 5.000008594536296187e+03 5.000009886372647088e+03 5.000002313118522579e+03 5.000002859429960154e+03 5.000008762068876422e+03 5.000007248637850353e+03 5.000004272750551536e+03 5.000008964782846306e+03 5.000008445044318250e+03 5.000004257997298737e+03 5.000001734749973366e+03 5.000008204322869460e+03 5.000007894805839896e+03 5.000008276483059490e+03 5.000001588976576386e+03 5.000004207868287267e+03 5.000009430662829800e+03 5.000000339710977642e+03 5.000004434824914824e+03 5.000007463763877240e+03 5.000006395925011020e+03 5.000002592735754661e+03 5.000004438760437552e+03 5.000006947701574973e+03 5.000000302379866298e+03 5.000008804579693788e+03 5.000009961642490453e+03 5.000008862095637596e+03 5.000000095232981039e+03 5.000007588884120196e+03 5.000003644421857643e+03 5.000008150074398145e+03 5.000009647309511820e+03 5.000009154683443739e+03 5.000009743711199917e+03 5.000003851849735838e+03 5.000002224032031336e+03 5.000003087336823228e+03 5.000003434618276515e+03 5.000008951186274317e+03 5.000001842375486376e+03 5.000003141091739053e+03 5.000003448288293839e+03 5.000003133387200251e+03 5.000003097300910667e+03 5.000005350721885407e+03 5.000008245140529652e+03 5.000008701224182005e+03 5.000008940973539211e+03 5.000009080944474590e+03 5.000000698471247233e+03 5.000005025266310440e+03 5.000008604021652900e+03 5.000004015193200757e+03 5.000004501073615756e+03 5.000000217370089558e+03 5.000000417808204475e+03 5.000007178070596638e+03 5.000005542809412873e+03 5.000006219551762115e+03 5.000003441302065767e+03 5.000006024444088325e+03 5.000004319959263739e+03 5.000009463796912314e+03 5.000005760102478234e+03 5.000007042589054436e+03 5.000002175038691348e+03 5.000006322542600174e+03 5.000000114115393444e+03 5.000008798056598607e+03 5.000005799805712741e+03 5.000008959296577814e+03 5.000006238800136089e+03 5.000005384862919527e+03 5.000000694447939168e+03 5.000004898580902591e+03 5.000001041920573698e+03 5.000003809108558926e+03 5.000005384610773945e+03 5.000003237562881623e+03 5.000000850828332659e+03 5.000005862682545740e+03 5.000009467813491938e+03 5.000003311854115054e+03 1.860734509524113395e-03
4.338839538490053480e-03 5.000001304480298131e+03 5.000002814206322000e+03 5.000006029252936969e+03 5.000000589593767472e+03 5.000004488009809393e+03 5.000007711891024883e+03 5.000000834945741190e+03 5.000009595442876162e+03 5.000007123894634788e+03 5.000003762139032915e+03 5.000009776400001101e+03 5.000006908448901413e+03 5.000001304050644649e+03 5.000000434444110397e+03 5.000006410735502868e+03 5.000001438066325136e+03 5.000005151753709470e+03 5.000002369025705775e+03 5.000003430326872149e+03 5.000000457542120785e+03 5.000005743651498051e+03 5.000001678132822235e+03 5.000000239495524511e+03 5.000009876268371954e+03 5.000002314832784577e+03 5.000008741339490371e+03 5.000004581190575664e+03 5.000006217641149306e+03 5.000000800505215011e+03 5.000000433767059803e+03 5.000003653696330730e+03 5.000001813751308873e+03 5.000005028592950111e+03 5.000003026528723240e+03 5.000007268094059327e+03 5.000002646697690579e+03 5.000008184115989025e+03 5.000005490031258887e+03 5.000004758017631502e+03 5.000007725032772214e+03 5.000002545774004830e+03 5.000000037230545786e+03 5.000007219400082249e+03 5.000003123532726022e+03 5.000000148671842908e+03 5.000002446870696986e+03 5.000005372859678573e+03 5.000003241807245104e+03 5.000006386367477717e+03 5.000003666825247819e+03 5.000004614815626155e+03 5.000006307795662906e+03 5.000001147586173829e+03 5.000002261439895847e+03 5.000005528299959224e+03 5.000005628230157527e+03 5.000002106135169015e+03 5.000009379194561916e+03 5.000009550650204801e+03 5.000002189688278122e+03 5.000001635068031646e+03 5.000004362881783891e+03 5.000008881431474947e+03 5.000005935691077866e+03 5.000008192800096367e+03 5.000001805964631785e+03 5.000005422150051345e+03 5.000001146459828306e+03 5.000002135719698344e+03 5.000005735612774515e+03 5.000002041152860329e+03 5.000009583678768649e+03 5.000003830944779111e+03 5.000004526759703367e+03 5.000006605759990634e+03 5.000002578569435173e+03 5.000000767347874898e+03 5.000007082458135301e+03 5.000004242214903570e+03 5.000005689591136615e+03 5.000005719860190766e+03 5.000004708096481409e+03 5.000002071938095469e+03 5.000009385102941451e+03 5.000000365084080840e+03 5.000007109651425708e+03 5.000002781823455734e+03 5.000003666086389785e+03 5.000007305114455448e+03 5.000003189179658875e+03 5.000001599233762136e+03 5.000004266203837687e+03 5.000006100250172494e+03 5.000004338293027104e+03 5.000005217632140557e+03 5.000009312077442701e+03 5.000009026200271364e+03 5.000005391383402639e+03 1.108185834485849808e-03
2.145489084468809107e-03 5.000009720745332743e+03 5.000000755321329962e+03 5.000004545078146293e+03 5.000009369324472573e+03 5.000004729397186566e+03 5.000005306016434588e+03 5.000003035284849830e+03 5.000006530584614666e+03 5.000007097702374267e+03 5.000009833915308263e+03 5.000006497816457340e+03 5.000006546449609232e+03 5.000000296510166663e+03 5.000001212044926433e+03 5.000005982439977743e+03 5.000007883339259934e+03 5.000005382478266256e+03 5.000000935897929594e+03 5.000007909248685792e+03 5.000000508492286826e+03 5.000004567198402583e+03 5.000002504324227630e+03 5.000007340892110733e+03 5.000001230117772138e+03 5.000004697530128396e+03 5.000007992143500815e+03 5.000004744362106976e+03 5.000007020171621662e+03 5.000000268424859314e+03 5.000005465307180202e+03 5.000009511920536170e+03 5.000009691877078694e+03 5.000005294333848724e+03 5.000004191501733658e+03 5.000004858065546614e+03 5.000008076857689957e+03 5.000008296640378830e+03 5.000009810618515985e+03 5.000000745343209019e+03 5.000007398810343147e+03 5.000005688565621313e+03 5.000001812413023799e+03 5.000005496919501638e+03 5.000000526396536770e+03 5.000008453869222649e+03 5.000004006685441709e+03 5.000009976608736906e+03 5.000000447462492957e+03 5.000002611263886138e+03 5.000003858828153170e+03 5.000005001401675145e+03 5.000008189910964575e+03 5.000007614466599080e+03 5.000004228997614518e+03 5.000007811459506229e+03 5.000009067140292245e+03 5.000002321891615793e+03 5.000003800198798672e+03 5.000004236847306856e+03 5.000001384441600749e+03 5.000003575134845050e+03 5.000009765186592631e+03 5.000009265384710488e+03 5.000005819007649734e+03 5.000006067007812817e+03 5.000005111196502185e+03 5.000009210196895765e+03 5.000006948811771508e+03 5.000004149236653575e+03 5.000005028236031649e+03 5.000003752499354960e+03 5.000002073933563224e+03 5.000006111601934208e+03 5.000001752385513100e+03 5.000004562174568491e+03 5.000008136962971548e+03 5.000002252279879031e+03 5.000007628673532963e+03 5.000008220923172303e+03 5.000008259562223429e+03 5.000007689274780205e+03 5.000007182539031419e+03 5.000004282617857825e+03 5.000001453886778108e+03 5.000007529664127105e+03 5.000009413958952791e+03 5.000009195843393172e+03 5.000009581052367139e+03 5.000008187502393412e+03 5.000001327714957370e+03 5.000003500675987198e+03 5.000000240729020334e+03 5.000005123747696416e+03 5.000008134117693771e+03 5.000005334619002497e+03 5.000005713479457881e+03 5.000003159943320497e+03 5.000004297454838706e+03 2.717450045024240139e-03
9.461404608699377008e-03 5.000005647584067447e+03 5.000004758712367220e+03 5.000007969900666467e+03 5.000001864620435299e+03 5.000007212008460556e+03 5.000003119543964203e+03 5.000003406069939956e+03 5.000008109422658890e+03 5.000004521386370470e+03 5.000002778815118290e+03 5.000003074186852245e+03 5.000007610444878082e+03 5.000004025412901683e+03 5.000008566062961108e+03 5.000009802709189898e+03 5.000004553099466648e+03 5.000003289660903647e+03 5.000007822398432836e+03 5.000003468426896688e+03 5.000008236483266955e+03 5.000001581575216733e+03 5.000000015857616745e+03 5.000009099391302698e+03 5.000000642284257992e+03 5.000001390633590745e+03 5.000005032028688220e+03 5.000007393175183097e+03 5.000006346262424813e+03 5.000008293130564198e+03 5.000001863017542746e+03 5.000008300821617922e+03 5.000003914626015103e+03 5.000009036467414262e+03 5.000007832617759050e+03 5.000000250256198342e+03 5.000004359754809229e+03 5.000009283293768021e+03 5.000001885937712359e+03 5.000005962988887404e+03 5.000008067230748566e+03 5.000004350551804237e+03 5.000007430116853357e+03 5.000006505943335469e+03 5.000001017987950945e+03 5.000005207513510868e+03 5.000005955969561910e+03 5.000003988413663137e+03 5.000007795967962011e+03 5.000005799906721222e+03 5.000008185081687770e+03 5.000006494835952253e+03 5.000000605724571869e+03 5.000002537817301345e+03 5.000005750803955380e+03 5.000003399845679269e+03 5.000003115845866887e+03 5.000002822050839313e+03 5.000002471545691151e+03 5.000000833210686324e+03 5.000004054318760609e+03 5.000002606628030662e+03 5.000008512629521647e+03 5.000000439065732280e+03 5.000003585550415664e+03 5.000008429532335867e+03 5.000008930081213293e+03 5.000008525501501936e+03 5.000002602895745440e+03 5.000002194380050241e+03 5.000006533345792377e+03 5.000002804222690429e+03 5.000007106211021892e+03 5.000006912943075804e+03 5.000008365923361453e+03 5.000007615717571753e+03 5.000008954566355897e+03 5.000009268240622987e+03 5.000009685325070677e+03 5.000002183458993386e+03 5.000005039536715230e+03 5.000005802911700812e+03 5.000005067868627521e+03 5.000007305176122827e+03 5.000009407267978531e+03 5.000009021626844515e+03 5.000006909617183737e+03 5.000003289834628958e+03 5.000006021284085364e+03 5.000008399147131968e+03 5.000002643727763825e+03 5.000006651469214376e+03 5.000005403170019235e+03 5.000003159395983857e+03 5.000003248965334933e+03 5.000006825552371083e+03 5.000000693657075317e+03 5.000000194771895622e+03 5.000006451676024881e+03 2.974444734164435541e-03
5.660171846745473516e-03 5.000000463683143607e+03 5.000008692708749550e+03 5.000000377200020012e+03 5.000002428714275084e+03 5.000001349554910121e+03 5.000002326235003238e+03 5.000001750929361151e+03 5.000007062166770083e+03 5.000002780373924907e+03 5.000004236809001668e+03 5.000003656133106233e+03 5.000008238822367275e+03 5.000007708022913903e+03 5.000000801819222033e+03 5.000002156940934583e+03 5.000005697130025510e+03 5.000000590302954151e+03 5.000009879419880235e+03 5.000004162436005572e+03 5.000000893059414011e+03 5.000006012211543748e+03 5.000003713622298164e+03 5.000006593319241802e+03 5.000000341409289831e+03 5.000000330895257321e+03 5.000001906891771796e+03 5.000001795784335627e+03 5.000000830638797197e+03 5.000006447800848036e+03 5.000005083515377919e+03 5.000009859210264040e+03 5.000004641240426281e+03 5.000007553118080978e+03 5.000003492317512610e+03 5.000009329659359537e+03 5.000006466637003541e+03 5.000005189688113205e+03 5.000002066592280244e+03 5.000009768189275746e+03 5.000006315827035905e+03 5.000001706487757474e+03 5.000000886167801582e+03 5.000006042647426511e+03 5.000008442676874438e+03 5.000008444497771052e+03 5.000007800384180882e+03 5.000002473328519045e+03 5.000006949371444534e+03 5.000004505353206696e+03 5.000008648904246002e+03 5.000007505493867939e+03 5.000001967923753000e+03 5.000001343099193036e+03 5.000001161716837487e+03 5.000001737038157444e+03 5.000005101855437715e+03 5.000005041370928666e+03 5.000000078356010818e+03 5.000000025246800760e+03 5.000007884638516771e+03 5.000002046636642262e+03 5.000007534359024248e+03 5.000005046109292380e+03 5.000006255436719584e+03 5.000001334453521849e+03 5.000003450025395978e+03 5.000001039874948219e+03 5.000009973181218811e+03 5.000000643745859634e+03 5.000007761834183839e+03 5.000009473732596234e+03 5.000005915992505834e+03 5.000009322249157776e+03 5.000001116272415857e+03 5.000008657427368234e+03 5.000003758174307222e+03 5.000002275376615216e+03 5.000008879821079972e+03 5.000006313380955362e+03 5.000002721759517954e+03 5.000009335904253930e+03 5.000005232622801486e+03 5.000001628037795854e+03 5.000005944599290160e+03 5.000001661671123657e+03 5.000006977449808801e+03 5.000004574161837809e+03 5.000004894605366644e+03 5.000009082724162909e+03 5.000000849928939715e+03 5.000006492354101283e+03 5.000001622876938200e+03 5.000001982127419069e+03 5.000009685985107353e+03 5.000002888228869779e+03 5.000009172901138299e+03 5.000004721776263068e+03 5.000002640391377099e+03 4.170356824866335889e-03
9.213401027609919094e-03 5.000005236226018496e+03 5.000000061477388954e+03 5.000001818618574362e+03 5.000006588747741262e+03 5.000001362145224448e+03 5.000007737768200968e+03 5.000003104675862232e+03 5.000000452166053947e+03 5.000007288186710866e+03 5.000000073485877692e+03 5.000003272344269135e+03 5.000008839632453601e+03 5.000000095548663921e+03 5.000007609142544425e+03 5.000002905997241214e+03 5.000008980049690763e+03 5.000008404903176597e+03 5.000008418637803516e+03 5.000001281722983549e+03 5.000007498478328671e+03 5.000008789434115897e+03 5.000009799846490750e+03 5.000005244339055935e+03 5.000002407679213320e+03 5.000009368111866934e+03 5.000007220578593660e+03 5.000005195199064474e+03 5.000007055787285935e+03 5.000006195320764164e+03 5.000003480643717921e+03 5.000008429527199041e+03 5.000000873067004250e+03 5.000000212287250179e+03 5.000003504231337502e+03 5.000004676780577938e+03 5.000008843927474118e+03 5.000002982923402669e+03 5.000000297410455460e+03 5.000004592019731717e+03 5.000009905178951158e+03 5.000001332418552920e+03 5.000000560919176678e+03 5.000000207140225939e+03 5.000001871314832897e+03 5.000005476687038026e+03 5.000008513233926351e+03 5.000008368731256269e+03 5.000009647636716181e+03 5.000005174364076993e+03 5.000006977152701438e+03 5.000006903597426572e+03 5.000003970868949182e+03 5.000003481086867396e+03 5.000002419480930257e+03 5.000001541381750940e+03 5.000005810044145619e+03 5.000006974478218581e+03 5.000007053145356622e+03 5.000002487583360562e+03 5.000000930895279453e+03 5.000004677800980971e+03 5.000001213428305164e+03 5.000000981985063845e+03 5.000004526042761427e+03 5.000001311822328717e+03 5.000000568404225305e+03 5.000005780871852039e+03 5.000004646496421628e+03 5.000009591613641533e+03 5.000005390083308157e+03 5.000007688810835134e+03 5.000009236443402187e+03 5.000002362057248320e+03 5.000005357595095120e+03 5.000004987748617168e+03 5.000007805993619513e+03 5.000002948084605123e+03 5.000008153985445460e+03 5.000006972349315220e+03 5.000002467444418471e+03 5.000002789945674522e+03 5.000007847102395317e+03 5.000006712701107972e+03 5.000001752639283950e+03 5.000004303607128350e+03 5.000007252481989781e+03 5.000007290743278645e+03 5.000000373284585294e+03 5.000003526560340106e+03 5.000007205795867776e+03 5.000007155775474530e+03 5.000006167973018819e+03 5.000004509303475061e+03 5.000002377133596383e+03 5.000003296923386188e+03 5.000003903227256160e+03 5.000006456601156970e+03 5.000003210195232896e+03 5.191546659077180860e-03
5.234813853615071476e-03 5.000008744691359425e+03 5.000004874132909208e+03 5.000009861860980891e+03 5.000000869730562044e+03 5.000000370173966985e+03 5.000002920148323028e+03 5.000009189688827973e+03 5.000005215978864726e+03 5.000000224770261411e+03 5.000001374285093334e+03 5.000005842971888342e+03 5.000007379987109744e+03 5.000008740349446271e+03 5.000008677915994667e+03 5.000001066994435860e+03 5.000007613444545314e+03 5.000002198426143877e+03 5.000005813732177558e+03 5.000007844985631891e+03 5.000002264692359859e+03 5.000006331186651551e+03 5.000000477775617583e+03 5.000008033633532250e+03 5.000005183774219404e+03 5.000007750132268484e+03 5.000001697850902929e+03 5.000007632006747372e+03 5.000006782902849409e+03 5.000008428412580542e+03 5.000000971459488028e+03 5.000002944446992842e+03 5.000005182421762584e+03 5.000002479751729879e+03 5.000000641725778223e+03 5.000009158048860627e+03 5.000001323506202425e+03 5.000007957973288285e+03 5.000005184036736864e+03 5.000009288413567447e+03 5.000001931856591909e+03 5.000000172674215719e+03 5.000004675677273553e+03 5.000002122869820596e+03 5.000000634350490145e+03 5.000008477798774948e+03 5.000001112612158977e+03 5.000006297429132246e+03 5.000006008553091306e+03 5.000002240991642793e+03 5.000003259624078964e+03 5.000001958383380043e+03 5.000000810155446743e+03 5.000007120210079847e+03 5.000000741674359233e+03 5.000000143317733091e+03 5.000009769910946488e+03 5.000008423909002886e+03 5.000009815367120609e+03 5.000000503555874275e+03 5.000000375737085051e+03 5.000009551472010571e+03 5.000001987985902815e+03 5.000002099504260514e+03 5.000009863090997897e+03 5.000009594336092050e+03 5.000008028553205804e+03 5.000004811157894437e+03 5.000000956749710895e+03 5.000005736594709560e+03 5.000002012573071625e+03 5.000001586733587828e+03 5.000002903390008214e+03 5.000007458270669304e+03 5.000002248423565106e+03 5.000004357408583928e+03 5.000007784056220771e+03 5.000001842129128818e+03 5.000007199065481473e+03 5.000006544527853293e+03 5.000001454152662518e+03 5.000003801521691457e+03 5.000000345515362824e+03 5.000007696640290305e+03 5.000008824463183373e+03 5.000001332004618234e+03 5.000000730609323909e+03 5.000005073165355498e+03 5.000006222058962521e+03 5.000000577005148443e+03 5.000007335776823311e+03 5.000007010516218543e+03 5.000009614643278837e+03 5.000007654324675059e+03 5.000005055424180682e+03 5.000006212892104486e+03 5.000001622247968044e+03 5.000005185357253140e+03 5.000001564441262417e+03 2.655335597451358013e-04
6.229481079083745015e-03 5.000004156370448072e+03 5.000000434212839536e+03 5.000008143025283061e+03 5.000001946376615706e+03 5.000007685980603128e+03 5.000009224613651895e+03 5.000007343954870521e+03 5.000002222371858807e+03 5.000006034637573975e+03 5.000009645951694438e+03 5.000006320601913103e+03 5.000005749226537773e+03 5.000001998390116569e+03 5.000003408349482925e+03 5.000009247103545931e+03 5.000002542939626437e+03 5.000002672461872862e+03 5.000007170581773607e+03 5.000007190433063442e+03 5.000005803861030472e+03 5.000004180390650617e+03 5.000006404514566384e+03 5.000005088438265375e+03 5.000000224213354159e+03 5.000007074790268234e+03 5.000007457365706614e+03 5.000008012882815819e+03 5.000006712642475577e+03 5.000003213513205083e+03 5.000000041973848965e+03 5.000008450506885310e+03 5.000006197209653692e+03 5.000008886102010365e+03 5.000003371977084498e+03 5.000009432192929125e+03 5.000007826962350009e+03 5.000008528973699867e+03 5.000004307062640692e+03 5.000008297326827233e+03 5.000007142452361222e+03 5.000005813959391162e+03 5.000006659725269856e+03 5.000004954010499205e+03 5.000003120819201285e+03 5.000003254657523030e+03 5.000000908217401957e+03 5.000006995988816925e+03 5.000001524117013105e+03 5.000009289345118304e+03 5.000009445859160223e+03 5.000004913298304928e+03 5.000009942750040864e+03 5.000003934241835850e+03 5.000002600269785944e+03 5.000005263280805593e+03 5.000004425494395036e+03 5.000009691398139694e+03 5.000006296560236478e+03 5.000007189978216047e+03 5.000004208171026221e+03 5.000003266363708462e+03 5.000009140509798272e+03 5.000007006343482317e+03 5.000007348362044468e+03 5.000008935270338043e+03 5.000005116642349094e+03 5.000005250179900031e+03 5.000001616444747924e+03 5.000007987983593011e+03 5.000008157751335602e+03 5.000001184521447612e+03 5.000001304731784330e+03 5.000008583076290961e+03 5.000004111441279747e+03 5.000009406915357431e+03 5.000003414592544686e+03 5.000001933479435138e+03 5.000005447207899124e+03 5.000002058453426798e+03 5.000003782340880207e+03 5.000004471190542063e+03 5.000009810650076361e+03 5.000000804342276751e+03 5.000003855475633827e+03 5.000008837482077979e+03 5.000008832775688461e+03 5.000000932969771384e+03 5.000008844004647472e+03 5.000008594255873504e+03 5.000004277621411347e+03 5.000008162994239683e+03 5.000000220754628572e+03 5.000003622081884714e+03 5.000008220311643527e+03 5.000004795979208211e+03 5.000008364095372599e+03 5.000000020997827960e+03 5.000004554666370495e+03 2.088699737915683703e-03
1.834783226245318907e-03 5.000000323424630551e+03 5.000007150653038480e+03 5.000008636384541205e+03 5.000007714760151430e+03 5.000009336607696241e+03 5.000002852348803572e+03 5.000003146217915855e+03 5.000009979849568481e+03 5.000000336908291501e+03 5.000007184227848484e+03 5.000007262745690241e+03 5.000003161248739161e+03 5.000001823423068345e+03 5.000008651573913994e+03 5.000004870545127233e+03 5.000001497583019955e+03 5.000006092730036471e+03 5.000000970085216977e+03 5.000000638215276012e+03 5.000004613952074578e+03 5.000005381085728004e+03 5.000002564752216131e+03 5.000005463287785460e+03 5.000008344613564987e+03 5.000004609780107785e+03 5.000007425462949868e+03 5.000004448072754712e+03 5.000000667547150442e+03 5.000007882245077781e+03 5.000001544654751342e+03 5.000008847282821989e+03 5.000008954914108472e+03 5.000002032885683548e+03 5.000006236436843210e+03 5.000009689824360066e+03 5.000001682660871666e+03 5.000007883411648436e+03 5.000003519175274050e+03 5.000003135805238344e+03 5.000000912008963496e+03 5.000003149742657115e+03 5.000000112174642709e+03 5.000002142319657651e+03 5.000002067945423732e+03 5.000002429931318147e+03 5.000003139609483696e+03 5.000009879319051834e+03 5.000006249028880120e+03 5.000008412851788307e+03 5.000004882493203695e+03 5.000001021339764520e+03 5.000005553115027396e+03 5.000007077543889864e+03 5.000006194794592375e+03 5.000008033474138756e+03 5.000001606880599866e+03 5.000008929445444664e+03 5.000002028783143942e+03 5.000002288542455062e+03 5.000000547768004253e+03 5.000009427270705601e+03 5.000006156073710372e+03 5.000001282856375838e+03 5.000006614041863941e+03 5.000005384099371440e+03 5.000007103547992301e+03 5.000003888436559464e+03 5.000005262309702630e+03 5.000008309972618008e+03 5.000000712654116796e+03 5.000006521812789288e+03 5.000000205995700526e+03 5.000007095327548996e+03 5.000009782579410057e+03 5.000001444804240236e+03 5.000008075673703388e+03 5.000009867784377093e+03 5.000002802161924592e+03 5.000001101231699067e+03 5.000001766925194715e+03 5.000000894821296242e+03 5.000004914178238323e+03 5.000009768941525181e+03 5.000009620029086364e+03 5.000008347440767466e+03 5.000008441442753792e+03 5.000008980452981632e+03 5.000008547369030566e+03 5.000006081777041800e+03 5.000009352249424410e+03 5.000009957592552382e+03 5.000007693547994677e+03 5.000005819696626531e+03 5.000005649511103911e+03 5.000000895153398233e+03 5.000008575748985095e+03 5.000006985984900894e+03 5.000001816125927689e+03 5.605956688471530266e-03
8.794976998887321304e-03 5.000008548714011340e+03 5.000005225274384429e+03 5.000007247103771078e+03 5.000009044394444572e+03 5.000003880308299813e+03 5.000006263164726988e+03 5.000006714332177580e+03 5.000007269941514096e+03 5.000000668393636261e+03 5.000001094526582165e+03 5.000006276091025939e+03 5.000000397380315007e+03 5.000005064520299129e+03 5.000007223576479191e+03 5.000008062746812357e+03 5.000007490347870771e+03 5.000003641193896328e+03 5.000005798604393931e+03 5.000007491925984141e+03 5.000000220933359742e+03 5.000007224428358313e+03 5.000002564420018643e+03 5.000007807972877345e+03 5.000009741082586515e+03 5.000009794375659112e+03 5.000000814273580545e+03 5.000002701152918235e+03 5.000009892773385218e+03 5.000009559992824506e+03 5.000006732295689289e+03 5.000001116278152949e+03 5.000001012760129015e+03 5.000001500133787886e+03 5.000008732713742575e+03 5.000001653354451264e+03 5.000006198093868079e+03 5.000008290734517686e+03 5.000002092601898767e+03 5.000005582790965491e+03 5.000008667517288814e+03 5.000006530875758472e+03 5.000001486603773628e+03 5.000004652717479985e+03 5.000008937369300838e+03 5.000004738616908071e+03 5.000002072792464787e+03 5.000008034837812374e+03 5.000006875783336000e+03 5.000000671262533615e+03 5.000009372959206303e+03 5.000002184226374993e+03 5.000007873908981310e+03 5.000005814109477797e+03 5.000001127862767135e+03 5.000007555613540717e+03 5.000007932866995361e+03 5.000007809671649738e+03 5.000007629566456671e+03 5.000001012347109281e+03 5.000001055181275660e+03 5.000004988292948838e+03 5.000006427033108594e+03 5.000009323949834652e+03 5.000000318696188515e+03 5.000004295056863157e+03 5.000000814708219878e+03 5.000009952082322343e+03 5.000005778320777608e+03 5.000006759640269593e+03 5.000009757354837348e+03 5.000007140864642679e+03 5.000009624529602661e+03 5.000000033947355405e+03 5.000004199801809591e+03 5.000001782912737326e+03 5.000006395283096936e+03 5.000005407174188804e+03 5.000009776432748367e+03 5.000008192529967346e+03 5.000003486443580186e+03 5.000008506143188242e+03 5.000007046066401927e+03 5.000008395841903621e+03 5.000007430990159264e+03 5.000008507916341841e+03 5.000002870954435821e+03 5.000005793040243589e+03 5.000004359125661722e+03 5.000008454117587462e+03 5.000000227369830100e+03 5.000000711904986929e+03 5.000008373337905141e+03 5.000002459777630065e+03 5.000002389911580394e+03 5.000000495902983857e+03 5.000009601858215319e+03 5.000000240819188548e+03 5.000000145420372064e+03 3.995440339956460828e-03
9.749028601234344289e-04 5.000002790480758449e+03 5.000006759173240425e+03 5.000000529941406057e+03 5.000003492622032354e+03 5.000000349270019797e+03 5.000008599795854934e+03 5.000000803775030363e+03 5.000002052841748082e+03 5.000007091780805240e+03 5.000000952985310505e+03 5.000008543792556338e+03 5.000006078604274080e+03 5.000000920969414437e+03 5.000002085433504362e+03 5.000009212940723046e+03 5.000002018840108576e+03 5.000004155421987889e+03 5.000003576057214559e+03 5.000006032228569893e+03 5.000006015471969476e+03 5.000003142926876535e+03 5.000008604078615463e+03 5.000006479314367425e+03 5.000000219624047531e+03 5.000001339109609034e+03 5.000003779431042858e+03 5.000008576670882576e+03 5.000003952772731282e+03 5.000000610121442151e+03 5.000000120693839563e+03 5.000002894624229157e+03 5.000009556186042573e+03 5.000006532284528475e+03 5.000000592816853896e+03 5.000006315697552054e+03 5.000005069944836578e+03 5.000005509735982741e+03 5.000003121378844298e+03 5.000003500382321363e+03 5.000001056922932548e+03 5.000002535511801398e+03 5.000002290536763212e+03 5.000007209118693936e+03 5.000004940151521623e+03 5.000008328525390425e+03 5.000003421392171731e+03 5.000002996459848873e+03 5.000001684503903562e+03 5.000002553410195105e+03 5.000006433705410927e+03 5.000002384602375969e+03 5.000004252156074472e+03 5.000001419530712155e+03 5.000007418308501656e+03 5.000001437268871996e+03 5.000005714297913073e+03 5.000000141254655318e+03 5.000002352628902372e+03 5.000001593479602889e+03 5.000007129972971597e+03 5.000008809438251774e+03 5.000005967186958515e+03 5.000006103059868110e+03 5.000004615207641109e+03 5.000007492490371078e+03 5.000006850184094219e+03 5.000004244268050570e+03 5.000002264906939672e+03 5.000000557952176678e+03 5.000003544178422999e+03 5.000008494172972860e+03 5.000003496501281916e+03 5.000004550365229989e+03 5.000009178108437482e+03 5.000002042895737759e+03 5.000009243120513929e+03 5.000008229277360442e+03 5.000005341635295736e+03 5.000008756322466070e+03 5.000006820221559792e+03 5.000008927304003009e+03 5.000003081127714722e+03 5.000005624775658362e+03 5.000003456208975877e+03 5.000009579261213730e+03 5.000001772826128217e+03 5.000006039089586920e+03 5.000000169120612554e+03 5.000008182588975615e+03 5.000009870116783532e+03 5.000005733623525884e+03 5.000002096675582834e+03 5.000009893679487504e+03 5.000005952779168183e+03 5.000005659239128363e+03 5.000002231600435152e+03 5.000008665724968523e+03 5.000008379228867852e+03 1.669811712263029584e-03
3.878634033380564533e-03 5.000006042041390174e+03 5.000008199361907828e+03 5.000009817311859479e+03 5.000002496496113963e+03 5.000008798856260000e+03 5.000000021460925382e+03 5.000004428513891980e+03 5.000009563953300130e+03 5.000001387538795825e+03 5.000006729388985150e+03 5.000009716775370180e+03 5.000003471047053608e+03 5.000008389038350288e+03 5.000007883534293796e+03 5.000004850225993323e+03 5.000008036959547098e+03 5.000008724276619432e+03 5.000003912081463568e+03 5.000000675944218528e+03 5.000007334072106460e+03 5.000009666566547821e+03 5.000009492216773651e+03 5.000008200671618397e+03 5.000003320457048176e+03 5.000000757843670726e+03 5.000005637998983730e+03 5.000004525295063104e+03 5.000003731634640644e+03 5.000001847697169069e+03 5.000001951467434992e+03 5.000008923972230150e+03 5.000004427815832059e+03 5.000009868234097667e+03 5.000008969133352366e+03 5.000005225091229477e+03 5.000005521434528418e+03 5.000005317189974448e+03 5.000004800551192602e+03 5.000008764015767156e+03 5.000006272887161686e+03 5.000007277115346369e+03 5.000005452862834318e+03 5.000006307449728411e+03 5.000005932365380431e+03 5.000000670581306622e+03 5.000005821780136102e+03 5.000002976389299874e+03 5.000005708011312890e+03 5.000004759927575833e+03 5.000005917470978602e+03 5.000005370299802962e+03 5.000004920984922137e+03 5.000005235098315097e+03 5.000001828658954764e+03 5.000000360754042049e+03 5.000006218534816071e+03 5.000005650402908941e+03 5.000004275091903764e+03 5.000005395776883233e+03 5.000008732186794987e+03 5.000005922624615778e+03 5.000005753197355261e+03 5.000007484845529689e+03 5.000001437439417714e+03 5.000000923108877032e+03 5.000007269072520103e+03 5.000009472173560425e+03 5.000006833491946963e+03 5.000005302780706188e+03 5.000005412713148871e+03 5.000000799659082077e+03 5.000004031015125292e+03 5.000003604934321629e+03 5.000004387111832330e+03 5.000005497410165844e+03 5.000005175068616154e+03 5.000007574778544949e+03 5.000002071367024655e+03 5.000005832475156240e+03 5.000001750062436258e+03 5.000005903810708332e+03 5.000005424356213553e+03 5.000003073231093367e+03 5.000009819715397498e+03 5.000004467991780984e+03 5.000008862931164003e+03 5.000009801835181861e+03 5.000009209693827870e+03 5.000003776807134273e+03 5.000007751310198728e+03 5.000008179017599105e+03 5.000009400507120517e+03 5.000008408024896198e+03 5.000006719525801600e+03 5.000002572862425950e+03 5.000006604506876101e+03 5.000009195520962749e+03 5.000002951973584459e+03 9.818670078189446065e-03
4.333685785204446049e-03 5.000009507580636637e+03 5.000009659360433034e+03 5.000005663456300681e+03 5.000000353310770151e+03 5.000008120287057864e+03 5.000000866355206199e+03 5.000008317784052451e+03 5.000008291723035654e+03 5.000004599599935318e+03 5.000004417670708790e+03 5.000007872927036260e+03 5.000007697163373450e+03 5.000003198757188329e+03 5.000003176498269568e+03 5.000008061632676799e+03 5.000002384785881077e+03 5.000007760463149680e+03 5.000008446309335341e+03 5.000003366910317709e+03 5.000000814468487988e+03 5.000004455196558411e+03 5.000006757767916497e+03 5.000007320716113099e+03 5.000008420333466347e+03 5.000004550346473479e+03 5.000002718412408285e+03 5.000008761955949922e+03 5.000004045028017572e+03 5.000001815712548705e+03 5.000000126244833154e+03 5.000000438438302808e+03 5.000008968279327746e+03 5.000004132277414101e+03 5.000008045372187553e+03 5.000005191340476813e+03 5.000005419844061180e+03 5.000000063485240389e+03 5.000006621571479627e+03 5.000001370997279082e+03 5.000004265684836355e+03 5.000006236543350497e+03 5.000003814601788690e+03 5.000001592307759893e+03 5.000000071258946264e+03 5.000008321143933244e+03 5.000003608167055063e+03 5.000007113118122106e+03 5.000004406236802424e+03 5.000000184744312719e+03 5.000002809169560351e+03 5.000000220620320761e+03 5.000002427512822578e+03 5.000002259006172608e+03 5.000001804581132092e+03 5.000008732956910535e+03 5.000006549269552124e+03 5.000009722721375510e+03 5.000001817433174438e+03 5.000004833907038119e+03 5.000009728873251333e+03 5.000004290688775654e+03 5.000009871776084765e+03 5.000001829924109188e+03 5.000005266758589642e+03 5.000002514158745726e+03 5.000009401384258126e+03 5.000005381318480431e+03 5.000008829372813125e+03 5.000002980953485348e+03 5.000006210910994014e+03 5.000002909431987064e+03 5.000006035929708560e+03 5.000006013851285388e+03 5.000008307679594509e+03 5.000008235983096711e+03 5.000001064241203494e+03 5.000007914939416878e+03 5.000002421709614282e+03 5.000008696304825207e+03 5.000009965494500648e+03 5.000004554355953587e+03 5.000005951140486104e+03 5.000008837329622111e+03 5.000000937019141929e+03 5.000003669754474686e+03 5.000004798249081432e+03 5.000003005872946233e+03 5.000005130383773576e+03 5.000007265871892741e+03 5.000003872592000334e+03 5.000000563117902857e+03 5.000009764931976861e+03 5.000002850936462892e+03 5.000004537625604826e+03 5.000007194653044280e+03 5.000002223660918389e+03 5.000004946236225805e+03 5.000007823686102711e+03 7.006133590058766063e-03
7.488791594575413928e-03 5.000004966394351868e+03 5.000003840851593850e+03 5.000009010908089294e+03 5.000004482348196689e+03 5.000007991303939889e+03 5.000008748766746066e+03 5.000000271574941507e+03 5.000001112767822633e+03 5.000005595739726232e+03 5.000006070824310882e+03 5.000005479870190356e+03 5.000006990821002546e+03 5.000002051413700428e+03 5.000006422882538573e+03 5.000003899738909240e+03 5.000004714900167528e+03 5.000009488535051787e+03 5.000003394870032935e+03 5.000003894489344020e+03 5.000001473851830269e+03 5.000006478408772637e+03 5.000005847125397850e+03 5.000006453072728618e+03 5.000007235532522827e+03 5.000005371251691031e+03 5.000007190821834229e+03 5.000009729240015986e+03 5.000004203962122119e+03 5.000007234169051117e+03 5.000005658279140334e+03 5.000002318829504475e+03 5.000000228686611081e+03 5.000007155789501667e+03 5.000008573969720601e+03 5.000007165462520788e+03 5.000007437234754434e+03 5.000005320104135535e+03 5.000006042312312275e+03 5.000003420054386879e+03 5.000003067064695642e+03 5.000002339241884329e+03 5.000008008460386918e+03 5.000003674663597849e+03 5.000004721152266939e+03 5.000007853703258661e+03 5.000008480485264045e+03 5.000003613347504142e+03 5.000000147789944094e+03 5.000007393352629151e+03 5.000004183035647657e+03 5.000001540899422253e+03 5.000001286672799324e+03 5.000000375188374164e+03 5.000009157899564343e+03 5.000000024982566174e+03 5.000004032346147142e+03 5.000005479756092427e+03 5.000006659808535915e+03 5.000006943034701180e+03 5.000001937389006343e+03 5.000006611138534936e+03 5.000005280099441734e+03 5.000008262700357591e+03 5.000009378021874909e+03 5.000006141798204226e+03 5.000009504474805908e+03 5.000002389075545580e+03 5.000000448636787041e+03 5.000000832911581711e+03 5.000002153147112040e+03 5.000007598004521242e+03 5.000009320120781922e+03 5.000007790248542733e+03 5.000004744077677060e+03 5.000002226447451903e+03 5.000001842581063102e+03 5.000009571061234055e+03 5.000004936252638799e+03 5.000000439260368694e+03 5.000006883121372084e+03 5.000004758477053656e+03 5.000004951683749823e+03 5.000002989372591401e+03 5.000002970811253363e+03 5.000004153129565566e+03 5.000007755694250591e+03 5.000005369740526476e+03 5.000001324603081230e+03 5.000003553845959686e+03 5.000009436886777621e+03 5.000007008741969912e+03 5.000007555449418760e+03 5.000003812633452071e+03 5.000005153372825589e+03 5.000002526253183532e+03 5.000002127158259100e+03 5.000003237969851398e+03 5.000005569738066697e+03 5.919871739677486956e-03
5.455303688726272950e-03 5.000003031068727978e+03 5.000000447787534540e+03 5.000005675742342646e+03 5.000001845182556281e+03 5.000009551646736327e+03 5.000008214211486120e+03 5.000000562753603845e+03 5.000000204383594792e+03 5.000009025864403156e+03 5.000004963259347278e+03 5.000008465506040011e+03 5.000006634225550442e+03 5.000002754650554380e+03 5.000004262213088623e+03 5.000003419274520638e+03 5.000000217662278374e+03 5.000005426196274129e+03 5.000002974659627398e+03 5.000009776560981663e+03 5.000004653517273255e+03 5.000006241669592782e+03 5.000007136245782021e+03 5.000000456734102954e+03 5.000003997015965069e+03 5.000009987171117245e+03 5.000008644887228002e+03 5.000006969209598537e+03 5.000007984590607521e+03 5.000004744235689941e+03 5.000002986097753819e+03 5.000003054928673009e+03 5.000007570170952022e+03 5.000002404591918094e+03 5.000000671391639116e+03 5.000006154470080219e+03 5.000002616400422994e+03 5.000008554392395126e+03 5.000003062734003834e+03 5.000000741969627597e+03 5.000006900676442456e+03 5.000004936547959005e+03 5.000007229482762341e+03 5.000002227001605206e+03 5.000006378730767210e+03 5.000006372145379828e+03 5.000007541059525465e+03 5.000003173493701979e+03 5.000007492759483284e+03 5.000007060978632580e+03 5.000002199975697295e+03 5.000004369946759653e+03 5.000009746812213962e+03 5.000002192897811256e+03 5.000004582775392919e+03 5.000005901528658796e+03 5.000008260637851890e+03 5.000001418400211151e+03 5.000002134113930879e+03 5.000004599798051458e+03 5.000000124689336189e+03 5.000004623577759958e+03 5.000004235405349391e+03 5.000008959171691458e+03 5.000005557201565352e+03 5.000000116454714771e+03 5.000006664281314443e+03 5.000001782187910976e+03 5.000006392432329449e+03 5.000005330294227861e+03 5.000003863501417982e+03 5.000009150529452199e+03 5.000003467647441539e+03 5.000002982443911606e+03 5.000003886942220561e+03 5.000001233330534888e+03 5.000008617074829090e+03 5.000001947620361534e+03 5.000007095944803950e+03 5.000006099486161474e+03 5.000008802499452941e+03 5.000009285736363381e+03 5.000002747188873400e+03 5.000002088959308821e+03 5.000001948557915057e+03 5.000001624159857784e+03 5.000006920691501364e+03 5.000005701263386072e+03 5.000005701961315935e+03 5.000007316470449041e+03 5.000008878803102562e+03 5.000003078175839619e+03 5.000009128075130320e+03 5.000002689621658647e+03 5.000007177124305599e+03 5.000004656001805415e+03 5.000000354013884134e+03 5.000007778680559568e+03 5.000005989595832034e+03 1.570286808557773634e-03
6.825597533913129941e-03 5.000001230092944752e+03 5.000002162421859794e+03 5.000002988882246427e+03 5.000005779787992651e+03 5.000008246669513028e+03 5.000009022585437378e+03 5.000008304675438922e+03 5.000004475951889617e+03 5.000003769949819798e+03 5.000005147071843567e+03 5.000003529341947797e+03 5.000006882483546178e+03 5.000004092203035725e+03 5.000008296662072098e+03 5.000004900298036773e+03 5.000004954298394296e+03 5.000008808950159619e+03 5.000009185137050736e+03 5.000004005689841506e+03 5.000002219080663053e+03 5.000000580140618695e+03 5.000003927651789127e+03 5.000004174690826403e+03 5.000002197613139288e+03 5.000007091912251781e+03 5.000000391841829696e+03 5.000005867495703569e+03 5.000005654993834469e+03 5.000005391727187089e+03 5.000000502270204379e+03 5.000006558042121469e+03 5.000001535453195174e+03 5.000007440298131769e+03 5.000002308138315129e+03 5.000007659304375920e+03 5.000000159253525453e+03 5.000005447214107335e+03 5.000001444180434191e+03 5.000005562782722336e+03 5.000002991879922774e+03 5.000006406744496417e+03 5.000001695684742117e+03 5.000007767773236083e+03 5.000008465343908938e+03 5.000002468606221555e+03 5.000008914200514482e+03 5.000000322027010952e+03 5.000004310343736506e+03 5.000003094486735790e+03 5.000003989885559349e+03 5.000008816451152597e+03 5.000001798434768716e+03 5.000006924728800186e+03 5.000006041127226126e+03 5.000007249773408148e+03 5.000004501351360886e+03 5.000007057984334097e+03 5.000004191534319034e+03 5.000003152983194013e+03 5.000005567154104938e+03 5.000002914497670645e+03 5.000006327778596642e+03 5.000007214178233880e+03 5.000001649019231081e+03 5.000009101890043894e+03 5.000009972393655516e+03 5.000007424235856888e+03 5.000006444953774917e+03 5.000009581779519976e+03 5.000001163650216768e+03 5.000002535496109886e+03 5.000003964020907915e+03 5.000003044249844606e+03 5.000002969233613840e+03 5.000003153518659019e+03 5.000006903479720677e+03 5.000001460235626837e+03 5.000001460052619223e+03 5.000007854928642701e+03 5.000009457670465054e+03 5.000009700731080557e+03 5.000001672926297942e+03 5.000006285987861702e+03 5.000006717636139001e+03 5.000005214394907853e+03 5.000003463146936156e+03 5.000004146123550527e+03 5.000003457374702521e+03 5.000008361479239284e+03 5.000009608661093807e+03 5.000001648860479690e+03 5.000000514587323778e+03 5.000007151414303735e+03 5.000001026260302751e+03 5.000005314872278177e+03 5.000006389513570866e+03 5.000000970215744019e+03 5.000003236497985199e+03 2.495446930935284278e-03
7.681000663350590497e-04 5.000007481119231670e+03 5.000000629001429843e+03 5.000007546229746367e+03 5.000005411599552644e+03 5.000006875396547912e+03 5.000003376333670531e+03 5.000000929140402150e+03 5.000008882773153346e+03 5.000008949084453889e+03 5.000004112378803256e+03 5.000002226014996268e+03 5.000003032046091903e+03 5.000007025872744634e+03 5.000005998297457154e+03 5.000007571533837108e+03 5.000007551951352070e+03 5.000001521197663351e+03 5.000003859903826196e+03 5.000007677626768782e+03 5.000000010517807823e+03 5.000001100480162677e+03 5.000007115921167497e+03 5.000000824127608212e+03 5.000006299415013928e+03 5.000005376918916227e+03 5.000006604768310353e+03 5.000001026899151839e+03 5.000008901312039598e+03 5.000004355035491244e+03 5.000000854765152326e+03 5.000006859376748253e+03 5.000000788526534052e+03 5.000001106190106839e+03 5.000000819810818939e+03 5.000006146928363705e+03 5.000000751324225348e+03 5.000004001693242571e+03 5.000000331816311700e+03 5.000002151786264221e+03 5.000003527316671352e+03 5.000000972691741481e+03 5.000003703562781993e+03 5.000006987617880441e+03 5.000001855414447164e+03 5.000009317001221461e+03 5.000009891831826280e+03 5.000007052845403450e+03 5.000002088498483317e+03 5.000009831671624852e+03 5.000006484829606961e+03 5.000006738859214238e+03 5.000008500808021381e+03 5.000009804076713408e+03 5.000000462453057480e+03 5.000000057695913711e+03 5.000001899712632621e+03 5.000000567559399315e+03 5.000005118287623191e+03 5.000006254627733142e+03 5.000008375723732570e+03 5.000002294458256983e+03 5.000003244614902542e+03 5.000003917766059203e+03 5.000002426732495223e+03 5.000004442290488441e+03 5.000006478476207121e+03 5.000007125977395845e+03 5.000006882536454214e+03 5.000001971606052393e+03 5.000003858795415908e+03 5.000007777800058648e+03 5.000003741659180378e+03 5.000000631637798506e+03 5.000001067651928679e+03 5.000000642812127808e+03 5.000007340692552134e+03 5.000002675863371223e+03 5.000003593075551180e+03 5.000007202342153505e+03 5.000009891307636281e+03 5.000008291494860714e+03 5.000004649698859794e+03 5.000008171746118023e+03 5.000006942758001969e+03 5.000009466556991356e+03 5.000007344807212576e+03 5.000008557879054933e+03 5.000006830633987192e+03 5.000004131675616009e+03 5.000005780291539850e+03 5.000009035805664098e+03 5.000005880825074200e+03 5.000008041355939895e+03 5.000003465273665824e+03 5.000003070612377996e+03 5.000003883648761985e+03 5.000007802760375853e+03 5.000007692698429310e+03 6.258671202607477176e-03
4.967295210247968818e-04 5.000000602745050855e+03 5.000002646366456247e+03 5.000009601140559425e+03 5.000001739073793942e+03 5.000000372607642930e+03 5.000005861330168045e+03 5.000004833061595491e+03 5.000003047189497011e+03 5.000006437858255595e+03 5.000002118582257026e+03 5.000000221545999011e+03 5.000001156133751465e+03 5.000004548791141133e+03 5.000009251640351977e+03 5.000003373560958607e+03 5.000003482112988422e+03 5.000009157194092950e+03 5.000006986601469180e+03 5.000002454259594742e+03 5.000007064897464261e+03 5.000004501191755480e+03 5.000003085782433118e+03 5.000001985197444810e+03 5.000007220791396321e+03 5.000007053766580611e+03 5.000003738050663742e+03 5.000005505956052730e+03 5.000000091923835498e+03 5.000006923876599103e+03 5.000000637641046524e+03 5.000000831433755593e+03 5.000003398411324270e+03 5.000003284922990133e+03 5.000002291538469763e+03 5.000005837437260197e+03 5.000005650040173350e+03 5.000001176273857709e+03 5.000009858310656455e+03 5.000000671225448059e+03 5.000006589207800062e+03 5.000000704251567186e+03 5.000004872720477579e+03 5.000003204100807125e+03 5.000003380849061614e+03 5.000003392870898097e+03 5.000006405148542399e+03 5.000005656869561790e+03 5.000002167893469050e+03 5.000005951902651759e+03 5.000008895267056687e+03 5.000003892277893101e+03 5.000008487339102430e+03 5.000000495797263284e+03 5.000000928414730879e+03 5.000004295551734685e+03 5.000009326221592346e+03 5.000008983124248516e+03 5.000001031997221617e+03 5.000001146151411376e+03 5.000005698910448700e+03 5.000002988444759467e+03 5.000000973179670837e+03 5.000009822560046814e+03 5.000003568539199478e+03 5.000007109804129868e+03 5.000005280541779030e+03 5.000001176336183562e+03 5.000004178685425359e+03 5.000000623646325948e+03 5.000005808421346956e+03 5.000005907591852520e+03 5.000006400709251466e+03 5.000004695537963926e+03 5.000005273582526570e+03 5.000005316728285834e+03 5.000000926450102270e+03 5.000006066960324461e+03 5.000005741729731199e+03 5.000009314727144556e+03 5.000004348053225840e+03 5.000004143147898503e+03 5.000003150362335873e+03 5.000006290177128903e+03 5.000005634030099827e+03 5.000005409332461568e+03 5.000003934035898965e+03 5.000003071358834859e+03 5.000004299149612052e+03 5.000007513526859839e+03 5.000008906497255339e+03 5.000002807477289025e+03 5.000002528786613766e+03 5.000001048925866598e+03 5.000002895264486142e+03 5.000004138212775615e+03 5.000007394066757115e+03 5.000008984634086119e+03 5.000006816803408583e+03 9.347845748883554587e-03
3.376673725333137911e-03 5.000006047926752217e+03 5.000005239275856184e+03 5.000002811913800542e+03 5.000009516738659840e+03 5.000003314729492558e+03 5.000005160156478269e+03 5.000009216574129823e+03 5.000007685101349125e+03 5.000001303405716499e+03 5.000004880598193267e+03 5.000001252805482181e+03 5.000004552586509817e+03 5.000002619548458824e+03 5.000004135237375522e+03 5.000007072539094224e+03 5.000002240172249913e+03 5.000002793688754537e+03 5.000004212626936351e+03 5.000003675135490994e+03 5.000008049113001107e+03 5.000005953195942311e+03 5.000002332895990548e+03 5.000004824674958400e+03 5.000001802011694963e+03 5.000003957931716286e+03 5.000000461294746856e+03 5.000005608019266219e+03 5.000006354594566801e+03 5.000000295952826491e+03 5.000001854470850958e+03 5.000005029676183767e+03 5.000004743677141960e+03 5.000008249031830019e+03 5.000004367387976345e+03 5.000006316820039501e+03 5.000003026591927664e+03 5.000008205850977902e+03 5.000006548715171448e+03 5.000008907515195460e+03 5.000001352542398308e+03 5.000009746244952112e+03 5.000008601019131675e+03 5.000004100993842258e+03 5.000002378557945121e+03 5.000004946999748427e+03 5.000006835914099611e+03 5.000009089724451769e+03 5.000003236444801587e+03 5.000004779964139743e+03 5.000001234368362020e+03 5.000002234560655779e+03 5.000004007917782474e+03 5.000007548344435236e+03 5.000001101069032302e+03 5.000007809369326424e+03 5.000007899105106844e+03 5.000006942816939045e+03 5.000000145163648995e+03 5.000002109314174959e+03 5.000005281622641633e+03 5.000009260690816518e+03 5.000008056316809416e+03 5.000008482606932375e+03 5.000002030131864558e+03 5.000005278220945002e+03 5.000005448629149214e+03 5.000004025441322483e+03 5.000001047313144227e+03 5.000006724061579007e+03 5.000000374967248717e+03 5.000005506403612344e+03 5.000009594177075996e+03 5.000009986902405217e+03 5.000005664032098139e+03 5.000005176641184335e+03 5.000003491694608783e+03 5.000008476206423438e+03 5.000004046642416142e+03 5.000002813551977852e+03 5.000003159473056257e+03 5.000005495684342350e+03 5.000000209557680137e+03 5.000009725559782964e+03 5.000000825511328912e+03 5.000001332763516984e+03 5.000007016072070655e+03 5.000005049669802247e+03 5.000005408426477516e+03 5.000000270705970252e+03 5.000007551480267466e+03 5.000001804572917536e+03 5.000007643952613762e+03 5.000002195871595177e+03 5.000007672094106965e+03 5.000003776732576625e+03 5.000009294712250266e+03 5.000008515982644894e+03 5.000007584865035824e+03 3.950821598524816708e-03
4.287772958673949711e-03 5.000007694211864873e+03 5.000006570178543370e+03 5.000007460484133844e+03 5.000000965525353422e+03 5.000002709392413635e+03 5.000009996211140788e+03 5.000000816051504444e+03 5.000003763975750189e+03 5.000000195325388631e+03 5.000003398489880055e+03 5.000001288758236115e+03 5.000003782449353821e+03 5.000007371054885880e+03 5.000000571046962250e+03 5.000007223338888252e+03 5.000009371393673064e+03 5.000000142814524224e+03 5.000006913162447745e+03 5.000002224442035185e+03 5.000008185364740712e+03 5.000000325761036947e+03 5.000006162671808852e+03 5.000000179852658221e+03 5.000005445471978419e+03 5.000000688811271175e+03 5.000001908365520649e+03 5.000008301538383421e+03 5.000008206021479054e+03 5.000007413015079692e+03 5.000007264046514138e+03 5.000009694389102151e+03 5.000007813464168066e+03 5.000005325114416337e+03 5.000002401861120234e+03 5.000000884061473698e+03 5.000002191493627834e+03 5.000004396080897095e+03 5.000008678107775268e+03 5.000009853205912805e+03 5.000006811472218942e+03 5.000009001038564747e+03 5.000001719701077491e+03 5.000008495519191456e+03 5.000001754484705089e+03 5.000008638720444651e+03 5.000002573702802692e+03 5.000005007702704461e+03 5.000000648604557682e+03 5.000002631187884617e+03 5.000007381573246676e+03 5.000000760321589951e+03 5.000001177932009341e+03 5.000001301019434322e+03 5.000000829202185741e+03 5.000002339404237318e+03 5.000003934552902138e+03 5.000003931332537832e+03 5.000006881340783366e+03 5.000007024325585007e+03 5.000003366780341821e+03 5.000009855216884716e+03 5.000002408922328868e+03 5.000008880752215191e+03 5.000003914493787306e+03 5.000008623862944660e+03 5.000001645464446483e+03 5.000000941361750847e+03 5.000000288086343971e+03 5.000004626776958503e+03 5.000003411761314965e+03 5.000001388117523675e+03 5.000001830317218264e+03 5.000009898114394673e+03 5.000008868755368894e+03 5.000008732189536204e+03 5.000007328551868341e+03 5.000009553161437907e+03 5.000003892625140907e+03 5.000004715754648714e+03 5.000002791216724290e+03 5.000001260492799702e+03 5.000006759146533113e+03 5.000005683320353455e+03 5.000009286937221077e+03 5.000005346429949896e+03 5.000009798316210436e+03 5.000001877660844912e+03 5.000007168382724558e+03 5.000004936940866173e+03 5.000003950615597205e+03 5.000008653388007588e+03 5.000003599581287745e+03 5.000001688276047389e+03 5.000004891615725683e+03 5.000000196648090423e+03 5.000005293921762132e+03 5.000001121570928262e+03 5.000008975959382042e+03 1.828547957255299795e-03
1.289815604239990003e-03 5.000009182807943944e+03 5.000006152894296974e+03 5.000005160022643395e+03 5.000002821992072313e+03 5.000007767396140480e+03 5.000009315486779087e+03 5.000007643214075870e+03 5.000009029440981067e+03 5.000003305231066406e+03 5.000004398725302053e+03 5.000009852389346634e+03 5.000007469827696696e+03 5.000000733815855710e+03 5.000006399285155567e+03 5.000007292799861716e+03 5.000009247341001355e+03 5.000007379943381238e+03 5.000001076649727111e+03 5.000001250428078492e+03 5.000000306697504129e+03 5.000001749180370098e+03 5.000004800625498319e+03 5.000000099519211290e+03 5.000007123986522856e+03 5.000009034414553753e+03 5.000008638394599075e+03 5.000009027753611008e+03 5.000003458742372459e+03 5.000007793147902703e+03 5.000006690373687888e+03 5.000000333001575200e+03 5.000005025761790421e+03 5.000009188678128339e+03 5.000000144907282447e+03 5.000005763416338596e+03 5.000002899371180320e+03 5.000007499652871957e+03 5.000000764302552852e+03 5.000003808910716543e+03 5.000008339390584297e+03 5.000008174374213013e+03 5.000008807033744233e+03 5.000009213430577802e+03 5.000001806285934435e+03 5.000009576811758961e+03 5.000006879770509840e+03 5.000005617972761684e+03 5.000001741577229041e+03 5.000001065067946001e+03 5.000003649045441307e+03 5.000007584761074213e+03 5.000009870243132355e+03 5.000005768597223323e+03 5.000001285645196731e+03 5.000001972765888240e+03 5.000002053204704680e+03 5.000009150042606052e+03 5.000008568734355322e+03 5.000005241649760137e+03 5.000008849061789078e+03 5.000009763205072886e+03 5.000000293600285659e+03 5.000009427778044483e+03 5.000001825234045100e+03 5.000009383731667185e+03 5.000006710333775118e+03 5.000005725128423364e+03 5.000009710934570649e+03 5.000008106546121780e+03 5.000007961457038618e+03 5.000001403817171195e+03 5.000000666513476972e+03 5.000004150257899710e+03 5.000005229735184912e+03 5.000001278478523091e+03 5.000007061075472848e+03 5.000008464161123811e+03 5.000007350256013524e+03 5.000008566030279326e+03 5.000001734498235237e+03 5.000002470124942192e+03 5.000008483221071401e+03 5.000001293752080528e+03 5.000009685552220617e+03 5.000008104237098451e+03 5.000001711800316116e+03 5.000000406687722716e+03 5.000000339592608725e+03 5.000005842901379765e+03 5.000004097062512301e+03 5.000003574062833650e+03 5.000009524137858534e+03 5.000003940607546610e+03 5.000006291004349805e+03 5.000001419034563696e+03 5.000009447087398257e+03 5.000003838120934233e+03 5.000009606948754481e+03 3.093468531329978104e-03
6.548447405171775463e-04 5.000003699752952343e+03 5.000007776918781019e+03 5.000009726973949910e+03 5.000008998144516227e+03 5.000001503980205598e+03 5.000005187916209252e+03 5.000000420257634687e+03 5.000006558450360899e+03 5.000001270180318897e+03 5.000005195418946641e+03 5.000002543618467826e+03 5.000005333386058737e+03 5.000004367032737719e+03 5.000009912259820339e+03 5.000004951407343469e+03 5.000009919552196152e+03 5.000008877547662451e+03 5.000006194270416927e+03 5.000003130758785119e+03 5.000005070423479992e+03 5.000009297918282755e+03 5.000004781223842656e+03 5.000009167505733785e+03 5.000004304369584133e+03 5.000004202645975965e+03 5.000000779828757004e+03 5.000006345612529003e+03 5.000009270978982386e+03 5.000000020604940801e+03 5.000006217744592504e+03 5.000008836665901981e+03 5.000007425754798533e+03 5.000004181461514236e+03 5.000007191521384811e+03 5.000007193808009106e+03 5.000008119020432787e+03 5.000008260399587016e+03 5.000002386775009654e+03 5.000008656929949211e+03 5.000001945509613506e+03 5.000007503667778110e+03 5.000007184219142800e+03 5.000004219727687087e+03 5.000005196938927838e+03 5.000004974140572813e+03 5.000006024804252775e+03 5.000007288159969903e+03 5.000008411278187850e+03 5.000003206209381460e+03 5.000000973495499238e+03 5.000002941782075141e+03 5.000003561844029718e+03 5.000004695634361269e+03 5.000003778533831792e+03 5.000002569865213445e+03 5.000006951570941965e+03 5.000004411468013132e+03 5.000008274799391074e+03 5.000002825089238286e+03 5.000002372162232859e+03 5.000001849195885370e+03 5.000005024087413403e+03 5.000009669724725427e+03 5.000007310102921110e+03 5.000000121769997349e+03 5.000008862436274285e+03 5.000002254638444356e+03 5.000008119792484649e+03 5.000006338715934362e+03 5.000006618056846492e+03 5.000006946430683456e+03 5.000009326666535344e+03 5.000001283160652747e+03 5.000008850894762872e+03 5.000005262388260235e+03 5.000005013814906306e+03 5.000008804722147943e+03 5.000003122538721072e+03 5.000005955385709058e+03 5.000009732151479511e+03 5.000007930502425552e+03 5.000008994339374112e+03 5.000000974582578237e+03 5.000005103387207782e+03 5.000008921956065024e+03 5.000000450839760560e+03 5.000004055099190737e+03 5.000009517143691482e+03 5.000001018088461933e+03 5.000006453782797507e+03 5.000004991276639885e+03 5.000006700410940539e+03 5.000000191914894458e+03 5.000004559188557323e+03 5.000005364788098632e+03 5.000002867220270673e+03 5.000000050025806559e+03 5.000006346551841489e+03 1.833823077454169647e-03
4.790414149675031701e-03 5.000005908034216191e+03 5.000003776494885642e+03 5.000001975805863367e+03 5.000001051624514730e+03 5.000008957556634414e+03 5.000001088768120098e+03 5.000006473840988292e+03 5.000008061513297434e+03 5.000003880379458678e+03 5.000004577325735227e+03 5.000004398593948281e+03 5.000007334512238231e+03 5.000003282777612185e+03 5.000006273993482864e+03 5.000003996264633315e+03 5.000009378190578900e+03 5.000009050433704942e+03 5.000004417490603373e+03 5.000009179150780255e+03 5.000003355463091793e+03 5.000001094435517189e+03 5.000007219099234135e+03 5.000005613671798528e+03 5.000002349977164158e+03 5.000000458839821476e+03 5.000000852158279486e+03 5.000004520038964984e+03 5.000000510746720465e+03 5.000006277616428633e+03 5.000007337165998251e+03 5.000005129328492330e+03 5.000006280404680183e+03 5.000009082265378311e+03 5.000006896503475218e+03 5.000007709116296610e+03 5.000009064204619790e+03 5.000005239981931481e+03 5.000009287865579608e+03 5.000004660597488510e+03 5.000008343947554749e+03 5.000009103815269555e+03 5.000009212574450430e+03 5.000007105937302185e+03 5.000000424479987487e+03 5.000005764009631093e+03 5.000005049654120739e+03 5.000000822487102596e+03 5.000002729642847953e+03 5.000005278270886265e+03 5.000005265143570796e+03 5.000005637632917569e+03 5.000003612757976043e+03 5.000004880447637333e+03 5.000006104642348873e+03 5.000005563918424741e+03 5.000008663154319947e+03 5.000001395188858623e+03 5.000001627308003663e+03 5.000005675817476913e+03 5.000002037411826677e+03 5.000003704357422066e+03 5.000003304239878162e+03 5.000000642395943032e+03 5.000006694808347675e+03 5.000000064996394940e+03 5.000008938978447986e+03 5.000000901877917386e+03 5.000005731553722399e+03 5.000009155920422927e+03 5.000002707961779379e+03 5.000007752776454254e+03 5.000009655690488216e+03 5.000006437539690523e+03 5.000008224628294556e+03 5.000000646249998681e+03 5.000002690395158425e+03 5.000003905221376044e+03 5.000001497337860201e+03 5.000004997206771804e+03 5.000006110893868026e+03 5.000002388175371379e+03 5.000000316757107612e+03 5.000005179859282180e+03 5.000001471729662626e+03 5.000004207555757603e+03 5.000002195523936280e+03 5.000001011298572848e+03 5.000000279812803456e+03 5.000003308597939395e+03 5.000003676625957269e+03 5.000008294869778183e+03 5.000000757803091801e+03 5.000003019221989234e+03 5.000004748675821247e+03 5.000009250450124455e+03 5.000002730076850639e+03 5.000006366855672240e+03 5.000000956693178523e+03 8.478362332007542690e-03
2.990212595082229925e-03 5.000008533690817785e+03 5.000005595713212642e+03 5.000000347067132680e+03 5.000007266485072250e+03 5.000008633786565952e+03 5.000007582263702716e+03 5.000003840025439786e+03 5.000002897340584241e+03 5.000003445353293500e+03 5.000005155854093573e+03 5.000009368941177854e+03 5.000000942455883887e+03 5.000000002082658284e+03 5.000007753795024655e+03 5.000004840279146265e+03 5.000004766726465277e+03 5.000003946917463509e+03 5.000008280843786451e+03 5.000001305200639763e+03 5.000003779007580306e+03 5.000003203952723197e+03 5.000005861290201210e+03 5.000006621946751693e+03 5.000009699304435344e+03 5.000004049961804412e+03 5.000004650750383917e+03 5.000005098299079691e+03 5.000001912181055559e+03 5.000007280239752617e+03 5.000009143475197561e+03 5.000006046830681953e+03 5.000009842297280557e+03 5.000003441396213020e+03 5.000008990882934995e+03 5.000003182574401762e+03 5.000007410139905005e+03 5.000005623791132166e+03 5.000002439641100864e+03 5.000004081928798769e+03 5.000000109680689093e+03 5.000002772937297777e+03 5.000004924812851641e+03 5.000008133696244840e+03 5.000008286237940411e+03 5.000005052179446466e+03 5.000004209955068291e+03 5.000004643374593797e+03 5.000005319791200236e+03 5.000000607155242506e+03 5.000005672684474121e+03 5.000006276598178374e+03 5.000003936098548365e+03 5.000007668919857679e+03 5.000005829827458001e+03 5.000002713073160521e+03 5.000002245293921078e+03 5.000008933707506003e+03 5.000001763186512107e+03 5.000008938900768044e+03 5.000009824740857766e+03 5.000006752759410119e+03 5.000000754912906814e+03 5.000005022358498536e+03 5.000005210686422288e+03 5.000005886519436899e+03 5.000005746161080424e+03 5.000006375093109455e+03 5.000005573749196628e+03 5.000000852411310916e+03 5.000003735992591828e+03 5.000008531896572094e+03 5.000002984289811138e+03 5.000008210133280954e+03 5.000002382252861935e+03 5.000002064678211354e+03 5.000002087477759233e+03 5.000006843408029454e+03 5.000004885107802693e+03 5.000000339259985594e+03 5.000003565139166312e+03 5.000008792505962447e+03 5.000005065074958111e+03 5.000005140273016877e+03 5.000009013461209179e+03 5.000008440429561233e+03 5.000008090858174910e+03 5.000005347111605261e+03 5.000005483136488692e+03 5.000003079663545577e+03 5.000006832697848949e+03 5.000000429192059528e+03 5.000009536285056129e+03 5.000000171455443706e+03 5.000009308350536230e+03 5.000006020943212206e+03 5.000006580723455045e+03 5.000002952509519673e+03 5.000009230158717401e+03 8.392502346042855429e-03
3.676239949994595125e-03 5.000009639056663218e+03 5.000005840216765137e+03 5.000001519953359093e+03 5.000000841055079945e+03 5.000008487098621117e+03 5.000000342530728631e+03 5.000004558642121083e+03 5.000002569881155068e+03 5.000004911186039863e+03 5.000007922017017336e+03 5.000001255887434127e+03 5.000004779154720381e+03 5.000004072829616234e+03 5.000002656715875673e+03 5.000002932249848527e+03 5.000003642002619017e+03 5.000006206618411852e+03 5.000002559185808423e+03 5.000009159657548480e+03 5.000001008384562738e+03 5.000003427599698625e+03 5.000007981440170624e+03 5.000008306862961945e+03 5.000006638290430601e+03 5.000002912109164754e+03 5.000004817062387701e+03 5.000003356918989994e+03 5.000009024239420796e+03 5.000001709954794933e+03 5.000008579119918977e+03 5.000000394932420022e+03 5.000007435427137352e+03 5.000008462523432172e+03 5.000008611899446805e+03 5.000003363562969753e+03 5.000002080771570036e+03 5.000008948262768172e+03 5.000004224740509926e+03 5.000003294902275229e+03 5.000001689854158940e+03 5.000002236615567199e+03 5.000000146986310028e+03 5.000000413376545112e+03 5.000006389370244506e+03 5.000006388570282070e+03 5.000006051401118384e+03 5.000005600859029073e+03 5.000003417126016757e+03 5.000006980417711020e+03 5.000008591908252129e+03 5.000004765569582560e+03 5.000002930815585387e+03 5.000008045959120864e+03 5.000001666711479629e+03 5.000009904489545079e+03 5.000002565997743659e+03 5.000007870831564105e+03 5.000003515434964356e+03 5.000007012319893875e+03 5.000000149354425957e+03 5.000002524889863707e+03 5.000003961051478655e+03 5.000006622758054618e+03 5.000007974240214025e+03 5.000002676758716916e+03 5.000005122929513163e+03 5.000005421322553048e+03 5.000007873930526330e+03 5.000004553898982522e+03 5.000003953210592954e+03 5.000007405980481963e+03 5.000000230924681091e+03 5.000001755098385729e+03 5.000009466191727370e+03 5.000004082235968781e+03 5.000003894265215422e+03 5.000000420163925810e+03 5.000001829395101595e+03 5.000000078772003690e+03 5.000007778126160702e+03 5.000005854792939317e+03 5.000003070051447139e+03 5.000004250818340552e+03 5.000007401629448395e+03 5.000009055779093615e+03 5.000002404668804957e+03 5.000000542107077308e+03 5.000007116785824110e+03 5.000008275516823232e+03 5.000001349341293462e+03 5.000001307018530497e+03 5.000001496237862739e+03 5.000008425350697507e+03 5.000000954394337896e+03 5.000003939473264836e+03 5.000001677981900684e+03 5.000009243483243154e+03 5.000007006239691691e+03 4.306901218162434430e-03
4.104878240991868127e-03 5.000005918103021031e+03 5.000005860699589903e+03 5.000003661515436761e+03 5.000007924996513793e+03 5.000009065181178812e+03 5.000003603160036619e+03 5.000009001688480566e+03 5.000007923505591862e+03 5.000004859035542722e+03 5.000005907708398809e+03 5.000009066431801330e+03 5.000000761030029025e+03 5.000003024429068319e+03 5.000005778490907687e+03 5.000003040438154130e+03 5.000009432754386580e+03 5.000007399034884656e+03 5.000001513675959359e+03 5.000000540567224562e+03 5.000001157018681624e+03 5.000009032101526827e+03 5.000001687294636213e+03 5.000005555853806982e+03 5.000006895708345837e+03 5.000003683853073198e+03 5.000000332113739205e+03 5.000001008326517876e+03 5.000006584482399376e+03 5.000001582692439115e+03 5.000009594676236702e+03 5.000000159122431796e+03 5.000009562914765411e+03 5.000007237954520861e+03 5.000007233319924126e+03 5.000001545388462546e+03 5.000007481496395485e+03 5.000000358395199328e+03 5.000006786033859498e+03 5.000007754915128316e+03 5.000007288157161383e+03 5.000008566892812269e+03 5.000006344067252940e+03 5.000002573152650257e+03 5.000000929135506340e+03 5.000001644547461183e+03 5.000001389961686073e+03 5.000002973018455123e+03 5.000000884945677171e+03 5.000005720366041714e+03 5.000004199766721285e+03 5.000008698118121174e+03 5.000007789107449753e+03 5.000009223420258422e+03 5.000007282473800842e+03 5.000001504050286712e+03 5.000002145413785911e+03 5.000001313957971433e+03 5.000001474717464589e+03 5.000009481415158916e+03 5.000003559230985957e+03 5.000002619537402097e+03 5.000003862902944093e+03 5.000001190408180264e+03 5.000001899878394397e+03 5.000007629088000613e+03 5.000001241826776095e+03 5.000002859610875021e+03 5.000000149483769746e+03 5.000002814616895193e+03 5.000002505570994799e+03 5.000005001714356695e+03 5.000005241038727036e+03 5.000008321253066242e+03 5.000008837123287776e+03 5.000007118494908354e+03 5.000008073129858531e+03 5.000005705722434868e+03 5.000003761940411096e+03 5.000009499279922238e+03 5.000002745821245298e+03 5.000002930619062681e+03 5.000003084336749453e+03 5.000002471248287293e+03 5.000002414459715510e+03 5.000003660605028927e+03 5.000009236817075362e+03 5.000008150307727192e+03 5.000002293268966241e+03 5.000000964097923315e+03 5.000008782172222709e+03 5.000007625794048181e+03 5.000000410506575463e+03 5.000000906135881451e+03 5.000006393609550287e+03 5.000002482056951521e+03 5.000006889474327181e+03 5.000007320957849515e+03 5.000005676963758560e+03 7.567771270761878243e-03
3.260608231146373652e-03 5.000007132671644285e+03 5.000007104590136805e+03 5.000002617202319016e+03 5.000000125781848510e+03 5.000006186308379256e+03 5.000008390346694796e+03 5.000005058166371782e+03 5.000000091349065769e+03 5.000007330452007409e+03 5.000000166217545484e+03 5.000000438615212261e+03 5.000000715034957466e+03 5.000001540196026326e+03 5.000003112629849966e+03 5.000000031923966162e+03 5.000006316535558653e+03 5.000009262647623473e+03 5.000002156603842195e+03 5.000006716785677781e+03 5.000004017970788482e+03 5.000009103344589676e+03 5.000001534578562314e+03 5.000007417449239256e+03 5.000007787816308337e+03 5.000009217770557370e+03 5.000005747679657361e+03 5.000004734359607028e+03 5.000002161302835702e+03 5.000003917700509191e+03 5.000002404833501714e+03 5.000004807024253751e+03 5.000003338545219776e+03 5.000009811331504352e+03 5.000001135838712798e+03 5.000007875892926677e+03 5.000000266199937869e+03 5.000008811460137622e+03 5.000008171749413123e+03 5.000004180284782706e+03 5.000001138369493674e+03 5.000000249838541095e+03 5.000008097272168015e+03 5.000004521337863480e+03 5.000000270277181698e+03 5.000009619307451430e+03 5.000009599057681044e+03 5.000006233399272787e+03 5.000009415168278792e+03 5.000006786173757064e+03 5.000000080197241914e+03 5.000003017807802280e+03 5.000009124017091381e+03 5.000006635157920755e+03 5.000008774454898230e+03 5.000002848630321751e+03 5.000006695967816995e+03 5.000006398724247447e+03 5.000002009733879277e+03 5.000005506748230800e+03 5.000001036877562001e+03 5.000005089269523523e+03 5.000009268784164306e+03 5.000003355868955623e+03 5.000004816717631002e+03 5.000005612588516669e+03 5.000002802940185575e+03 5.000007942373084006e+03 5.000009772715321560e+03 5.000006844003747574e+03 5.000001779618494766e+03 5.000006578871667443e+03 5.000000040129340050e+03 5.000003642286129434e+03 5.000002064639978926e+03 5.000008675738602506e+03 5.000000576598067710e+03 5.000007490470889024e+03 5.000002109941659000e+03 5.000000805963802122e+03 5.000004789249360329e+03 5.000009392173225024e+03 5.000000739682725907e+03 5.000000410744572036e+03 5.000008018761203857e+03 5.000000660033923850e+03 5.000001182032315228e+03 5.000008962584237452e+03 5.000004183340117379e+03 5.000001856124920778e+03 5.000000635693558252e+03 5.000008920361640776e+03 5.000002236764825284e+03 5.000005621703641737e+03 5.000005279138185870e+03 5.000000436286487457e+03 5.000007768121955451e+03 5.000007441950643624e+03 5.000005193088330088e+03 6.162151314911253584e-03
2.639830978664934377e-03 5.000006573010229658e+03 5.000004924077997202e+03 5.000000015580144463e+03 5.000003555024521120e+03 5.000006155332272101e+03 5.000008917981544073e+03 5.000005310902773999e+03 5.000002964948500448e+03 5.000009854946236374e+03 5.000007780153926433e+03 5.000003271945908637e+03 5.000002517961009289e+03 5.000007539689494479e+03 5.000006117539443949e+03 5.000005898931845877e+03 5.000009084492215152e+03 5.000003337511448990e+03 5.000008196624921766e+03 5.000001715611679174e+03 5.000007725586350716e+03 5.000007672738391193e+03 5.000006798035570682e+03 5.000003749115124265e+03 5.000009657342170613e+03 5.000007276740231646e+03 5.000004744312359435e+03 5.000005437201198220e+03 5.000005137456922967e+03 5.000004483421138502e+03 5.000005817980449137e+03 5.000004529530711807e+03 5.000003821794830401e+03 5.000004753889790663e+03 5.000008445693492831e+03 5.000000783503463026e+03 5.000006199386176377e+03 5.000000629691370705e+03 5.000000489129005473e+03 5.000005646639478073e+03 5.000000660138452076e+03 5.000009712754090287e+03 5.000008856299578838e+03 5.000007872104387388e+03 5.000003121569003270e+03 5.000006555641624800e+03 5.000008143997136358e+03 5.000000746586073546e+03 5.000009709998833387e+03 5.000005655878042489e+03 5.000005092218229038e+03 5.000005668509380484e+03 5.000000933404854550e+03 5.000005124131979755e+03 5.000009033471728799e+03 5.000001475608414694e+03 5.000005578487153798e+03 5.000006102428373197e+03 5.000000050238886615e+03 5.000006447312955970e+03 5.000000090341458417e+03 5.000007446718812389e+03 5.000009055268498741e+03 5.000002630616150782e+03 5.000004498876262915e+03 5.000003086176128818e+03 5.000009776673839951e+03 5.000000580625652219e+03 5.000007234015391077e+03 5.000006135039333458e+03 5.000004813245458536e+03 5.000002764710730844e+03 5.000005730210921683e+03 5.000000919546662772e+03 5.000009668208556832e+03 5.000000965210168033e+03 5.000007462088091415e+03 5.000001076756955626e+03 5.000007561866858850e+03 5.000005930726663792e+03 5.000001211393042468e+03 5.000000145556046846e+03 5.000008343811525265e+03 5.000004316625064348e+03 5.000004662839704906e+03 5.000006901431288497e+03 5.000009000649845802e+03 5.000001026346334584e+03 5.000009905926927786e+03 5.000005119302278217e+03 5.000003753040358788e+03 5.000007868546987993e+03 5.000005965633254164e+03 5.000006233716712813e+03 5.000005728281745178e+03 5.000001641998111154e+03 5.000008357618522496e+03 5.000004911241691843e+03 5.000003184799352312e+03 5.199293444039567932e-03
4.785076139670936361e-03 5.000000030517869163e+03 5.000002395272518697e+03 5.000006002426674058e+03 5.000003962870254327e+03 5.000003458173048784e+03 5.000009684809843748e+03 5.000008605379226537e+03 5.000008445448706880e+03 5.000009137138298684e+03 5.000007731441774013e+03 5.000004876776527453e+03 5.000004121056903386e+03 5.000003925741702915e+03 5.000001386921137055e+03 5.000009491453046394e+03 5.000000951392798015e+03 5.000005242761856607e+03 5.000002259667267936e+03 5.000002902328775235e+03 5.000003278438816778e+03 5.000006814580425271e+03 5.000003270443633483e+03 5.000007516370289522e+03 5.000003420575166274e+03 5.000008878929728780e+03 5.000006598887338441e+03 5.000007853484772568e+03 5.000009057131310328e+03 5.000007172115695539e+03 5.000007536171223364e+03 5.000002016867922066e+03 5.000009626406054849e+03 5.000000508561866809e+03 5.000008242929694461e+03 5.000002418252237476e+03 5.000008681360441187e+03 5.000009722994625918e+03 5.000000609889098996e+03 5.000005208176360611e+03 5.000007349310165409e+03 5.000007712881721091e+03 5.000008847154104842e+03 5.000000259061389443e+03 5.000003468885311122e+03 5.000002794703717882e+03 5.000009194670301440e+03 5.000006341793118736e+03 5.000005992218371830e+03 5.000008714240006157e+03 5.000002014143659835e+03 5.000004260688028808e+03 5.000001861541983089e+03 5.000008105568724204e+03 5.000004092599330761e+03 5.000006898081441250e+03 5.000005167719673409e+03 5.000005944784647909e+03 5.000008028623138671e+03 5.000007267510029124e+03 5.000006213245658728e+03 5.000003308109126010e+03 5.000003142028072944e+03 5.000002910769186201e+03 5.000002933953261163e+03 5.000008218429607950e+03 5.000006661584159701e+03 5.000009604476242203e+03 5.000003203360458429e+03 5.000001103325199438e+03 5.000008791565493993e+03 5.000009516895734123e+03 5.000009087202579394e+03 5.000001757004334650e+03 5.000008478372193167e+03 5.000007761642425976e+03 5.000006731620368555e+03 5.000004740395296722e+03 5.000004843851663281e+03 5.000007802413917489e+03 5.000001138846645517e+03 5.000000525689772985e+03 5.000000294119920909e+03 5.000002695333664633e+03 5.000002781800507364e+03 5.000006061881713322e+03 5.000005765478857938e+03 5.000007530933068665e+03 5.000006594635051442e+03 5.000005723897748794e+03 5.000005717736762563e+03 5.000000077106407844e+03 5.000000369972671251e+03 5.000006778356700124e+03 5.000001023019884087e+03 5.000002324843751921e+03 5.000000932380731683e+03 5.000006462210909376e+03 5.000007796961426720e+03 7.825485392041309218e-03
5.915147824110337203e-03 5.000007651896326934e+03 5.000004745524236569e+03 5.000006468363013482e+03 5.000002797055532938e+03 5.000001632067261198e+03 5.000002725519239902e+03 5.000007587895303004e+03 5.000003582484436265e+03 5.000000663585617986e+03 5.000005166285475752e+03 5.000007481434126021e+03 5.000008814130240353e+03 5.000001734021118864e+03 5.000004380536365716e+03 5.000000896160244338e+03 5.000004832761971556e+03 5.000009596234354831e+03 5.000009751737949045e+03 5.000003514895692206e+03 5.000002909731356340e+03 5.000001265038134989e+03 5.000006999856492257e+03 5.000004231656103912e+03 5.000009626126838157e+03 5.000000406244374062e+03 5.000009306808371548e+03 5.000006604952122871e+03 5.000008194998801628e+03 5.000009174461141811e+03 5.000003597240350246e+03 5.000002498976025890e+03 5.000003893021834301e+03 5.000009982494068936e+03 5.000000428942446888e+03 5.000008522878737494e+03 5.000007156829131418e+03 5.000000526498733961e+03 5.000006677702538582e+03 5.000009532257901810e+03 5.000000195542860638e+03 5.000004780994462635e+03 5.000008883821821655e+03 5.000004703088847236e+03 5.000001408006795828e+03 5.000008922046607950e+03 5.000008892998998817e+03 5.000003589173543332e+03 5.000003818960092758e+03 5.000009396649821610e+03 5.000009275738615543e+03 5.000008633677875878e+03 5.000006739976721292e+03 5.000005385879596361e+03 5.000009782880498278e+03 5.000008620772705399e+03 5.000001587897237187e+03 5.000009484873989095e+03 5.000003521830691170e+03 5.000006098014011513e+03 5.000001596995416548e+03 5.000007382715709355e+03 5.000003565776587493e+03 5.000003474162357634e+03 5.000004506616321123e+03 5.000005377689307352e+03 5.000006018853226124e+03 5.000006288060885709e+03 5.000000100168083009e+03 5.000005377820772082e+03 5.000004131036942454e+03 5.000004984859051547e+03 5.000003499478058075e+03 5.000003941859778024e+03 5.000000547676883798e+03 5.000009700117456305e+03 5.000004240799888066e+03 5.000004514150643445e+03 5.000008456934012429e+03 5.000004138546346439e+03 5.000001082959222913e+03 5.000006086175577366e+03 5.000004958498429005e+03 5.000000887794429218e+03 5.000007267008087183e+03 5.000004719259837657e+03 5.000002379269780249e+03 5.000009748215088621e+03 5.000000372778234123e+03 5.000001951701869984e+03 5.000001128247287852e+03 5.000009011765035211e+03 5.000000672977182148e+03 5.000005163884308786e+03 5.000000903143132746e+03 5.000002508776891773e+03 5.000009298115744969e+03 5.000009399656280948e+03 5.000006981606323279e+03 2.777010749735432486e-03
9.009667908228130573e-03 5.000000692050297403e+03 5.000001893418307191e+03 5.000007220113500807e+03 5.000004612738188371e+03 5.000004575801234751e+03 5.000009676102887170e+03 5.000004846794851801e+03 5.000004181966400211e+03 5.000000587062939303e+03 5.000004343166939179e+03 5.000008915896788494e+03 5.000001199394280775e+03 5.000004987460913981e+03 5.000001990459561057e+03 5.000009656100448410e+03 5.000001597838680027e+03 5.000001519125155937e+03 5.000003390204610696e+03 5.000009135374370999e+03 5.000009457970103540e+03 5.000007206885461528e+03 5.000006640636036536e+03 5.000006842970829894e+03 5.000008190350881705e+03 5.000002616512034365e+03 5.000009779794050701e+03 5.000004550046962322e+03 5.000006764218295757e+03 5.000009797854901990e+03 5.000003596964021199e+03 5.000002108292605953e+03 5.000007777646264003e+03 5.000007024905688922e+03 5.000007737521616946e+03 5.000002117922904290e+03 5.000004493710896895e+03 5.000005090938417197e+03 5.000003671907768876e+03 5.000008433636961854e+03 5.000003131618621410e+03 5.000002852752883882e+03 5.000002151747096832e+03 5.000007088139711414e+03 5.000008445206269243e+03 5.000007610561659021e+03 5.000002955225358164e+03 5.000006055157035007e+03 5.000007531980335443e+03 5.000003587407190935e+03 5.000000107090962047e+03 5.000004014157932033e+03 5.000006709334710649e+03 5.000006590953360501e+03 5.000001832003462368e+03 5.000007491045495044e+03 5.000006170167133860e+03 5.000007158411004639e+03 5.000002755579864242e+03 5.000004350851538220e+03 5.000009099678169150e+03 5.000005702790642317e+03 5.000008425746081230e+03 5.000004717119256384e+03 5.000000069001590418e+03 5.000001946569414031e+03 5.000005960753810541e+03 5.000000895250250323e+03 5.000007832718287318e+03 5.000007089973318216e+03 5.000006826934933997e+03 5.000009761327675733e+03 5.000007701989059569e+03 5.000006086877690905e+03 5.000003319720261970e+03 5.000001094121186725e+03 5.000003766695544982e+03 5.000004302791148802e+03 5.000009091224474105e+03 5.000002345487532693e+03 5.000005410807112639e+03 5.000001243418044396e+03 5.000008849466003085e+03 5.000006834472615083e+03 5.000008604383198872e+03 5.000002900533509091e+03 5.000002828190389664e+03 5.000000245895192165e+03 5.000008770202997766e+03 5.000003797881393439e+03 5.000006411391997062e+03 5.000003599990120165e+03 5.000009525275881060e+03 5.000005486751696480e+03 5.000003337621951687e+03 5.000003577067268452e+03 5.000007176275360507e+03 5.000007704335959716e+03 5.000008681375742526e+03 2.086981919055498277e-03
4.715438695229591526e-03 5.000008044892852922e+03 5.000003253588452026e+03 5.000004222503622259e+03 5.000001376867236104e+03 5.000006542466320752e+03 5.000008568518665015e+03 5.000006473415016444e+03 5.000008507991111401e+03 5.000008408276301452e+03 5.000001317772827861e+03 5.000003724070813405e+03 5.000007441020705301e+03 5.000008530433908163e+03 5.000009287962204326e+03 5.000005327155076884e+03 5.000009883646251183e+03 5.000005733130171393e+03 5.000007001543159276e+03 5.000007839226051146e+03 5.000001296013141655e+03 5.000009685374200672e+03 5.000006821593385212e+03 5.000005535887241422e+03 5.000006241229834814e+03 5.000003651364600955e+03 5.000003489965873086e+03 5.000001612395946722e+03 5.000003241267409976e+03 5.000004662411165555e+03 5.000007521959783844e+03 5.000001366308332763e+03 5.000000316496127198e+03 5.000003377365173947e+03 5.000004871812896454e+03 5.000004138817158491e+03 5.000002874800289646e+03 5.000003538990737979e+03 5.000006020178609106e+03 5.000000119902233564e+03 5.000000757809942115e+03 5.000002090998736094e+03 5.000008839878214530e+03 5.000007060294218718e+03 5.000000150870113430e+03 5.000000428009667303e+03 5.000002773809389510e+03 5.000007024068539977e+03 5.000009398406828950e+03 5.000002120029285834e+03 5.000004998213024010e+03 5.000005356926167224e+03 5.000004108418273972e+03 5.000007339214114836e+03 5.000008025079880099e+03 5.000006893628230500e+03 5.000008588044296630e+03 5.000003432297647123e+03 5.000001473385468671e+03 5.000003152207504172e+03 5.000006088163955610e+03 5.000001608289123396e+03 5.000002933083840617e+03 5.000005119101552737e+03 5.000008783071236394e+03 5.000008925483182793e+03 5.000000887875676199e+03 5.000000978364432740e+03 5.000007137457660974e+03 5.000007502613382712e+03 5.000005805046820569e+03 5.000007970989006935e+03 5.000002172163851355e+03 5.000002670138861504e+03 5.000007104401421202e+03 5.000001402726446031e+03 5.000005701527341444e+03 5.000000480222048282e+03 5.000003410363274270e+03 5.000000131878003231e+03 5.000004926608766255e+03 5.000000420403365752e+03 5.000000499836031850e+03 5.000005161069570022e+03 5.000003473444656265e+03 5.000001783509664165e+03 5.000002204017077929e+03 5.000002765435193396e+03 5.000006999454265497e+03 5.000008216069105401e+03 5.000006540064582623e+03 5.000009177405053379e+03 5.000005916041405726e+03 5.000007553415409348e+03 5.000008623028097645e+03 5.000009876922279545e+03 5.000001156138115221e+03 5.000008551600848477e+03 5.000001549176698973e+03 4.302771832424033722e-03
3.096764780222893893e-04 5.000007149503801884e+03 5.000007312731104321e+03 5.000008861071572028e+03 5.000008075943633230e+03 5.000007163092746850e+03 5.000003354588423463e+03 5.000001720228829072e+03 5.000000320935374475e+03 5.000008672194408064e+03 5.000002487647007911e+03 5.000001285142392589e+03 5.000005340222804080e+03 5.000002691052319278e+03 5.000006382189127180e+03 5.000009901231262120e+03 5.000004228344003423e+03 5.000005709998118618e+03 5.000000139044434945e+03 5.000005052448287643e+03 5.000004624214020623e+03 5.000006994782534093e+03 5.000002558322622463e+03 5.000005201499614486e+03 5.000000936498285228e+03 5.000002566008945905e+03 5.000006576411937203e+03 5.000007823929033293e+03 5.000002772399779133e+03 5.000003363648871527e+03 5.000004004675887700e+03 5.000004717785795947e+03 5.000008206476235500e+03 5.000002534807550546e+03 5.000001097232063330e+03 5.000004895396277789e+03 5.000003441060353907e+03 5.000001135053242251e+03 5.000002655665091879e+03 5.000007817577118658e+03 5.000008627509389953e+03 5.000005422350185654e+03 5.000008859863079124e+03 5.000009167450340101e+03 5.000009458196145715e+03 5.000000534279140993e+03 5.000007276304324478e+03 5.000009233544875315e+03 5.000000548892865481e+03 5.000003173348006385e+03 5.000009565931269208e+03 5.000006191516282342e+03 5.000002497900328308e+03 5.000009001522143080e+03 5.000009363876572024e+03 5.000008003818536054e+03 5.000009317614831161e+03 5.000004041183230584e+03 5.000003162536391756e+03 5.000001934162031830e+03 5.000004964608624505e+03 5.000000743661425076e+03 5.000006454496123297e+03 5.000003312063718113e+03 5.000003381113783689e+03 5.000006951565546842e+03 5.000009850531275333e+03 5.000004959751317074e+03 5.000009550445038258e+03 5.000006886096098242e+03 5.000003020120580913e+03 5.000006403126736586e+03 5.000003892610620824e+03 5.000009795113323889e+03 5.000000871384311722e+03 5.000003753414614039e+03 5.000000227324428124e+03 5.000007523357717218e+03 5.000009211702781613e+03 5.000009746750665727e+03 5.000000268218322162e+03 5.000007367754247753e+03 5.000009602215071027e+03 5.000004350112473730e+03 5.000005384992268773e+03 5.000002906422861997e+03 5.000004261729423888e+03 5.000006440780562116e+03 5.000009235359155355e+03 5.000008577098526075e+03 5.000003395016197828e+03 5.000000193403910089e+03 5.000003709976936079e+03 5.000002409532567071e+03 5.000006217236174962e+03 5.000007446630201230e+03 5.000008474641220346e+03 5.000001422094883310e+03 5.000004189175920146e+03 2.427392960625618552e-03
