ncols 100
nrows 38
xllcorner 0
yllcorner 280
cellsize 10.0
2.009213401027609702e+00 5.002004802358484085e+03 5.002000061477388954e+03 5.002000919117762351e+03 5.002006073326833757e+03 5.002001158780539299e+03 5.002007139678413296e+03 5.002002981607998663e+03 5.002000452166053947e+03 5.002006666730287179e+03 5.002000073485877692e+03 5.002002800083677357e+03 5.002008290582564769e+03 5.002000095548663921e+03 5.002007117314761672e+03 5.002002199036930506e+03 5.002008363593985450e+03 5.002007840677992135e+03 5.002007769827365337e+03 5.002001281722983549e+03 5.002007022679604233e+03 5.002008358534411855e+03 5.002008952385502198e+03 5.002004955153768606e+03 5.002002063300892587e+03 5.002008546546720936e+03 5.002006726046875883e+03 5.002004628629942999e+03 5.002006489864696050e+03 5.002005912776324294e+03 5.002003087331922870e+03 5.002007889299328781e+03 5.002000873067004250e+03 5.002000212287250179e+03 5.002002114664102010e+03 5.002004443860898391e+03 5.002008270419331893e+03 5.002002535337911468e+03 5.002000297410455460e+03 5.002003928008118237e+03 5.002009117147254074e+03 5.002001236830286871e+03 5.002000560919176678e+03 5.002000207140225939e+03 5.002001718055763376e+03 5.002005134993285537e+03 5.002007837706889404e+03 5.002007832785552637e+03 5.002009196530530062e+03 5.002004685468671596e+03 5.002006600124128454e+03 5.002006627212151216e+03 5.002003863359397656e+03 5.002003103152065705e+03 5.002002236110165541e+03 5.002001541381750940e+03 5.002005421983927590e+03 5.002006519052221847e+03 5.002006419073597499e+03 5.002002077193934383e+03 5.002000666499867293e+03 5.002004313137243116e+03 5.002001213428305164e+03 5.002000981985063845e+03 5.002004203855697597e+03 5.002001219713313731e+03 5.002000568404225305e+03 5.002005349872133593e+03 5.002002480727274815e+03 5.002008778171116319e+03 5.002005076630994154e+03 5.002007127737230803e+03 5.002008623181933217e+03 5.002002362057248320e+03 5.002005085273473014e+03 5.002004925681656459e+03 5.002007343330196818e+03 5.002002716695968957e+03 5.002007659686401894e+03 5.002006540681009938e+03 5.002002223997959845e+03 5.002002644195757057e+03 5.002007374110882665e+03 5.002006256565668082e+03 5.002001695211270089e+03 5.002003808340043179e+03 5.002006939378176867e+03 5.002006661883397101e+03 5.002000373284585294e+03 5.002002922350747212e+03 5.002006627989783738e+03 5.002006790377971811e+03 5.002005754782466283e+03 5.002004315469849644e+03 5.002002377133596383e+03 5.002003173224239617e+03 5.002003677829698972e+03 5.002006133518600109e+03 5.002003060581235331e+03 2.005191546659077062e+00
2.005234813853614906e+00 5.002008194861116863e+03 5.002004469128758501e+03 5.002009048884324329e+03 5.002000869730562044e+03 5.002000370173966985e+03 5.002002543685143792e+03 5.002008585506674535e+03 5.002004782904972672e+03 5.002000224770261411e+03 5.002001182699287710e+03 5.002005419310742582e+03 5.002007077526244757e+03 5.002008127444052661e+03 5.002007986014034941e+03 5.002001066994435860e+03 5.002007107770264156e+03 5.002002198426143877e+03 5.002005485067992595e+03 5.002007337686243773e+03 5.002002264692359859e+03 5.002006059252881641e+03 5.002000477775617583e+03 5.002007346737358603e+03 5.002004797149624210e+03 5.002007481679301236e+03 5.002001697850902929e+03 5.002007358972492511e+03 5.002006512653520076e+03 5.002007906806969004e+03 5.002000816545214548e+03 5.002002487020626177e+03 5.002004936724486470e+03 5.002002479751729879e+03 5.002000641725778223e+03 5.002008383837671317e+03 5.002001323506202425e+03 5.002007465006436178e+03 5.002005091731876746e+03 5.002008572946890126e+03 5.002001418280120561e+03 5.002000172674215719e+03 5.002004443603868822e+03 5.002002122869820596e+03 5.002000634350490145e+03 5.002007992176474545e+03 5.002001082436521756e+03 5.002005823338894515e+03 5.002005666047504747e+03 5.002002240991642793e+03 5.002002829838402249e+03 5.002001637827407649e+03 5.002000810155446743e+03 5.002006540343196320e+03 5.002000741674359233e+03 5.002000143317733091e+03 5.002008894766108824e+03 5.002008118099436615e+03 5.002008968838825240e+03 5.002000503555874275e+03 5.002000375737085051e+03 5.002008717314290152e+03 5.002001917571576087e+03 5.002001989720031816e+03 5.002009147330000815e+03 5.002008833006748318e+03 5.002007350357844189e+03 5.002004530962697572e+03 5.002000956749710895e+03 5.002005302063345880e+03 5.002001947281461071e+03 5.002001517001186585e+03 5.002002490567247150e+03 5.002007006661267042e+03 5.002002248423565106e+03 5.002004305012049372e+03 5.002007320875492042e+03 5.002001842129128818e+03 5.002006712071267430e+03 5.002006136702905678e+03 5.002001454152662518e+03 5.002003029676026927e+03 5.002000345515362824e+03 5.002007028356206320e+03 5.002008285435809739e+03 5.002001332004618234e+03 5.002000730609323909e+03 5.002004762781081808e+03 5.002005708872252399e+03 5.002000577005148443e+03 5.002006721343034769e+03 5.002006803367544308e+03 5.002008760653401623e+03 5.002007305814318897e+03 5.002004609042416632e+03 5.002005777525015219e+03 5.002001423854127097e+03 5.002004856183071752e+03 5.002001564441262417e+03 2.000265533559745013e+00
2.006229481079083943e+00 5.002003807920827967e+03 5.002000419087251430e+03 5.002007440849098202e+03 5.002001812980876821e+03 5.002007020907272818e+03 5.002008617256515208e+03 5.002006813407666414e+03 5.002001507935621703e+03 5.002005506467818122e+03 5.002008876565111677e+03 5.002005981290289128e+03 5.002005408241408986e+03 5.002001998390116569e+03 5.002002717777416365e+03 5.002008592914809924e+03 5.002002051027453490e+03 5.002002526895154915e+03 5.002006606900268707e+03 5.002006594776900783e+03 5.002005579865953223e+03 5.002003339915182551e+03 5.002006055426908461e+03 5.002004921758479213e+03 5.002000224213354159e+03 5.002006807947456764e+03 5.002006933773452147e+03 5.002007646226934412e+03 5.002006347015964820e+03 5.002002690750856345e+03 5.002000041973848965e+03 5.002007686094791097e+03 5.002005894207097299e+03 5.002008224556722780e+03 5.002002648276838954e+03 5.002008815473284812e+03 5.002007266440902640e+03 5.002008132583661791e+03 5.002004168683276475e+03 5.002007781444523062e+03 5.002006622073066865e+03 5.002005301115284055e+03 5.002006064493394661e+03 5.002004765481645336e+03 5.002002880193102101e+03 5.002003135953473247e+03 5.002000908217401957e+03 5.002006498545925751e+03 5.002001524117013105e+03 5.002008648585711853e+03 5.002008844402727846e+03 5.002004615528223439e+03 5.002009364854319756e+03 5.002003585897113226e+03 5.002002369991033447e+03 5.002004797829617019e+03 5.002003793299080826e+03 5.002009155207316326e+03 5.002005908580500545e+03 5.002006582121639440e+03 5.002003859767940412e+03 5.002002469197667779e+03 5.002008534026876987e+03 5.002006550286804668e+03 5.002006994472596489e+03 5.002008566042343773e+03 5.002004873762397438e+03 5.002004882428345809e+03 5.002001204912808134e+03 5.002007371340794634e+03 5.002007509221091823e+03 5.002001023918651299e+03 5.002001031018379763e+03 5.002007896525571596e+03 5.002003781046701988e+03 5.002008683087074132e+03 5.002002689068209293e+03 5.002001933479435138e+03 5.002005127778038513e+03 5.002002058453426798e+03 5.002003527836301146e+03 5.002004354309571681e+03 5.002009314619121142e+03 5.002000692051677106e+03 5.002002895162075220e+03 5.002008297271168885e+03 5.002008096215109617e+03 5.002000910889989427e+03 5.002008122812405418e+03 5.002007865414898333e+03 5.002003873842898429e+03 5.002007773071390147e+03 5.002000220754628572e+03 5.002003622081884714e+03 5.002007731733344372e+03 5.002004434725896317e+03 5.002007605631959450e+03 5.002000020997827960e+03 5.002004282827724637e+03 2.002088699737915700e+00
2.001834783226245307e+00 5.002000323424630551e+03 5.002006529995910569e+03 5.002008093706976069e+03 5.002007178234763160e+03 5.002008747129614676e+03 5.002002852348803572e+03 5.002002943235816019e+03 5.002009209675573402e+03 5.002000336908291501e+03 5.002006561744252394e+03 5.002006845546698969e+03 5.002003039628223632e+03 5.002001823423068345e+03 5.002008112137868920e+03 5.002004452637337636e+03 5.002001497583019955e+03 5.002005866494976544e+03 5.002000970085216977e+03 5.002000638215276012e+03 5.002004252521456692e+03 5.002005125037056132e+03 5.002002564550333773e+03 5.002005199766198530e+03 5.002007962332271745e+03 5.002004139519342061e+03 5.002006824445734310e+03 5.002003979668115790e+03 5.002000667547150442e+03 5.002007293295427189e+03 5.002001403798918545e+03 5.002008144464215547e+03 5.002008232900110670e+03 5.002001609103847841e+03 5.002005815770206937e+03 5.002008944041687755e+03 5.002001661226432589e+03 5.002007317758447243e+03 5.002003369749641934e+03 5.002002622621482260e+03 5.002000912008963496e+03 5.002002368224174461e+03 5.002000112174642709e+03 5.002002115448090990e+03 5.002002067945423732e+03 5.002002296589089383e+03 5.002002929708724878e+03 5.002009247536294424e+03 5.002005819491437251e+03 5.002007709070947385e+03 5.002004531479255093e+03 5.002001021339764520e+03 5.002005141135457961e+03 5.002006760121455955e+03 5.002005847085178175e+03 5.002007449238362824e+03 5.002001606880599866e+03 5.002008302112508318e+03 5.002002028783143942e+03 5.002001998413379624e+03 5.002000547768004253e+03 5.002008794718611171e+03 5.002005912589163017e+03 5.002001219182386194e+03 5.002006041737711712e+03 5.002005189048081775e+03 5.002006680040254651e+03 5.002002444962879963e+03 5.002004893455439742e+03 5.002007619307300047e+03 5.002000712654116796e+03 5.002005943962590209e+03 5.002000165460596691e+03 5.002006453383894950e+03 5.002009095663312110e+03 5.002001444804240236e+03 5.002007472867388969e+03 5.002009146483927907e+03 5.002002505125773496e+03 5.002001101231699067e+03 5.002001668646132202e+03 5.002000894821296242e+03 5.002004548782152597e+03 5.002008943769720645e+03 5.002009008677539896e+03 5.002007972515933034e+03 5.002007916791420030e+03 5.002008246856345977e+03 5.002008119425190671e+03 5.002005695146823200e+03 5.002008522714915671e+03 5.002009117075501308e+03 5.002007335472932937e+03 5.002005497135736732e+03 5.002005210663983235e+03 5.002000822192781015e+03 5.002007870880239352e+03 5.002006369075910698e+03 5.002001664243604864e+03 2.005605956688471636e+00
2.008794976998887538e+00 5.002007800960431268e+03 5.002004901551900730e+03 5.002006636452647399e+03 5.002008503532361829e+03 5.002003553250598998e+03 5.002005953090551884e+03 5.002006177008800478e+03 5.002006658037285888e+03 5.002000538995003808e+03 5.002000945461980336e+03 5.002005791488385512e+03 5.002000397380315007e+03 5.002004769875095917e+03 5.002006739008429577e+03 5.002007734555041679e+03 5.002007137056644751e+03 5.002003604144380006e+03 5.002005596554650765e+03 5.002006868861374642e+03 5.002000220933359742e+03 5.002006587746995137e+03 5.002002564420018643e+03 5.002007331286254157e+03 5.002008875495446773e+03 5.002008978002742879e+03 5.002000814273580545e+03 5.002002169967211557e+03 5.002009054116454536e+03 5.002008746368152970e+03 5.002006131240975265e+03 5.002001116278152949e+03 5.002001012760129015e+03 5.002001364071485114e+03 5.002008062837173384e+03 5.002001486214968281e+03 5.002005769741241238e+03 5.002007727267916380e+03 5.002002092601898767e+03 5.002005313684649082e+03 5.002007962471077008e+03 5.002006072305577618e+03 5.002001486603773628e+03 5.002004422056626026e+03 5.002008312876220771e+03 5.002004496269231822e+03 5.002002072792464787e+03 5.002007576577386317e+03 5.002006403848841728e+03 5.002000671262533615e+03 5.002008581895872339e+03 5.002002184226374993e+03 5.002007490782035347e+03 5.002005414602317614e+03 5.002001127862767135e+03 5.002006999400388850e+03 5.002007357777322795e+03 5.002007112542832147e+03 5.002007019164742815e+03 5.002000915147603337e+03 5.002000955345569309e+03 5.002004316135052250e+03 5.002006235133285372e+03 5.002008505290412359e+03 5.002000318696188515e+03 5.002003238535184209e+03 5.002000814708219878e+03 5.002009269616918573e+03 5.002005458919519697e+03 5.002006195850442964e+03 5.002009027947337927e+03 5.002006783782098864e+03 5.002008964147068582e+03 5.002000033947355405e+03 5.002002226502331723e+03 5.002001782912737326e+03 5.002005975976700938e+03 5.002005215520350248e+03 5.002009115404841396e+03 5.002007547866488494e+03 5.002003226190357964e+03 5.002008026147476812e+03 5.002006681131411824e+03 5.002008041594621318e+03 5.002007061975327815e+03 5.002007977221954206e+03 5.002002670278078767e+03 5.002005509152773811e+03 5.002003839986788989e+03 5.002007706231427619e+03 5.002000227369830100e+03 5.002000711904986929e+03 5.002007818627808774e+03 5.002002271526840559e+03 5.002001814951612687e+03 5.002000495902983857e+03 5.002008747142560424e+03 5.002000199986006919e+03 5.002000145420372064e+03 2.003995440339956247e+00
2.000974902860123361e+00 5.002002790480758449e+03 5.002006192879437549e+03 5.002000529941406057e+03 5.002003094911529843e+03 5.002000282673594484e+03 5.002007891066688899e+03 5.002000803775030363e+03 5.002001593286666321e+03 5.002006496073005110e+03 5.002000952985310505e+03 5.002007853719170271e+03 5.002005562129368627e+03 5.002000784205913078e+03 5.002001893327935250e+03 5.002008558931575863e+03 5.002002018840108576e+03 5.002004102752463041e+03 5.002003576057214559e+03 5.002005545293628529e+03 5.002005488695732311e+03 5.002001606385795640e+03 5.002007967924722834e+03 5.002005910251610658e+03 5.002000219624047531e+03 5.002001226277648129e+03 5.002003509871273309e+03 5.002007994243275789e+03 5.002003648895341030e+03 5.002000610121442151e+03 5.002000120693839563e+03 5.002001944803171682e+03 5.002008864242145137e+03 5.002006062446978831e+03 5.002000592816853896e+03 5.002005795435670734e+03 5.002004833272153519e+03 5.002005292612606354e+03 5.002003121378844298e+03 5.002002961645440337e+03 5.002001056922932548e+03 5.002002329134712454e+03 5.002002190929993958e+03 5.002006752919721293e+03 5.002004658185336666e+03 5.002007632348655534e+03 5.002002355656833060e+03 5.002002993973121193e+03 5.002001684503903562e+03 5.002002445753276334e+03 5.002006071164308196e+03 5.002002384602375969e+03 5.002003659512578452e+03 5.002001419530712155e+03 5.002006910158543178e+03 5.002001437268871996e+03 5.002005207657616666e+03 5.002000141254655318e+03 5.002002101059087181e+03 5.002001493334665611e+03 5.002006568643208084e+03 5.002008400956142395e+03 5.002005858150033418e+03 5.002005943176381152e+03 5.002004344341514297e+03 5.002007105767172106e+03 5.002006301504468865e+03 5.002002442562985379e+03 5.002002264906939672e+03 5.002000557952176678e+03 5.002001733872340992e+03 5.002007879600188062e+03 5.002002360321726883e+03 5.002004279020278773e+03 5.002008732736786442e+03 5.002002042895737759e+03 5.002008588554625021e+03 5.002007922873252028e+03 5.002004858832169703e+03 5.002008402005166317e+03 5.002006493491450783e+03 5.002008391347412726e+03 5.002003031781513528e+03 5.002005357327978345e+03 5.002003371827014234e+03 5.002009014949013363e+03 5.002001772826128217e+03 5.002005651247453898e+03 5.002000169120612554e+03 5.002007657219282919e+03 5.002008993503423881e+03 5.002005402991894698e+03 5.002002096675582834e+03 5.002009200756519931e+03 5.002005576613027188e+03 5.002005285264061968e+03 5.002001545513394376e+03 5.002007896112335402e+03 5.002007630700823029e+03 2.001669811712262881e+00
2.003878634033380735e+00 5.002005746444969191e+03 5.002007692866609432e+03 5.002009116561769588e+03 5.002002109060866132e+03 5.002008000911229828e+03 5.002000021460925382e+03 5.002004098992177205e+03 5.002008839347242429e+03 5.002001323383881754e+03 5.002006204261378116e+03 5.002009090298082810e+03 5.002002825525211847e+03 5.002007697689947236e+03 5.002007338970079218e+03 5.002004663238770263e+03 5.002007489857779547e+03 5.002008258527541329e+03 5.002003601036756663e+03 5.002000675944218528e+03 5.002006741380868334e+03 5.002008933822842664e+03 5.002008971429536359e+03 5.002007733427798485e+03 5.002003060989595724e+03 5.002000757843670726e+03 5.002005194348500481e+03 5.002004429061658811e+03 5.002003466727617706e+03 5.002001593552095983e+03 5.002000914577586627e+03 5.002008152560055350e+03 5.002004164353818851e+03 5.002009308063008575e+03 5.002008207650033910e+03 5.002004803975377399e+03 5.002005160986740520e+03 5.002005172176669475e+03 5.002004520689134552e+03 5.002008091923177744e+03 5.002005798708595648e+03 5.002006827298924691e+03 5.002005187858161662e+03 5.002005817343941089e+03 5.002005454021374135e+03 5.002000670581306622e+03 5.002005620542583529e+03 5.002002976389299874e+03 5.002005459682039145e+03 5.002004343696416981e+03 5.002005634898122480e+03 5.002004902147123175e+03 5.002004674231184254e+03 5.002004964544484210e+03 5.002001828658954764e+03 5.002000360754042049e+03 5.002005686009290912e+03 5.002005149571249603e+03 5.002003912753100849e+03 5.002005041009409069e+03 5.002008254126611973e+03 5.002005743258569055e+03 5.002005634086068312e+03 5.002006935081337360e+03 5.002001437439417714e+03 5.002000923108877032e+03 5.002006692166733956e+03 5.002008833118053190e+03 5.002006418166037292e+03 5.002004871432657637e+03 5.002005078273075014e+03 5.002000799659082077e+03 5.002003354948968990e+03 5.002003604934321629e+03 5.002004271635756595e+03 5.002005385976128309e+03 5.002004801357033102e+03 5.002007074468407154e+03 5.002002071367024655e+03 5.002005461346727316e+03 5.002001750062436258e+03 5.002005781133003438e+03 5.002005175128483643e+03 5.002002682851181817e+03 5.002009012197556331e+03 5.002004283783171559e+03 5.002008446644982541e+03 5.002009184020433167e+03 5.002008715795037460e+03 5.002003776807134273e+03 5.002007385179829726e+03 5.002007777334364619e+03 5.002008736522435356e+03 5.002007902835038294e+03 5.002006318527244730e+03 5.002002308541676030e+03 5.002006144598377432e+03 5.002008627925746623e+03 5.002002951973584459e+03 2.009818670078189484e+00
2.004333685785204544e+00 5.002009057401662176e+03 5.002009092187046917e+03 5.002005180715797906e+03 5.002000353310770151e+03 5.002007438415180332e+03 5.002000619696400463e+03 5.002007617957901857e+03 5.002007627800856426e+03 5.002004301762111936e+03 5.002004034290603158e+03 5.002007523960087383e+03 5.002007254287176693e+03 5.002003198757188329e+03 5.002003176498269568e+03 5.002007617529548952e+03 5.002002384785881077e+03 5.002007271765216501e+03 5.002007981447818565e+03 5.002003366910317709e+03 5.002000814468487988e+03 5.002004004112742223e+03 5.002006507435628009e+03 5.002007039400014946e+03 5.002007933120386951e+03 5.002004205573491163e+03 5.002002475499229149e+03 5.002008190459884645e+03 5.002003812143891992e+03 5.002001483302632550e+03 5.002000126244833154e+03 5.002000438438302808e+03 5.002008173770898793e+03 5.002003706352114932e+03 5.002007650915817067e+03 5.002005191340476813e+03 5.002004932902350447e+03 5.002000063485240389e+03 5.002006144246552140e+03 5.002001370997279082e+03 5.002004128255273827e+03 5.002005900294994717e+03 5.002002537811435104e+03 5.002000916286065149e+03 5.002000071258946264e+03 5.002007892691489360e+03 5.002003608167055063e+03 5.002006676521879854e+03 5.002004019105269435e+03 5.002000181384824828e+03 5.002002809169560351e+03 5.002000220620320761e+03 5.002002206693806329e+03 5.002002259006172608e+03 5.002001804581132092e+03 5.002008103104567454e+03 5.002006291015953138e+03 5.002009004058812025e+03 5.002001817433174438e+03 5.002004559682141007e+03 5.002008984223209154e+03 5.002003949598098188e+03 5.002009333396267721e+03 5.002001794243682525e+03 5.002004792308459400e+03 5.002002317028712241e+03 5.002008757351935856e+03 5.002005083253219709e+03 5.002008290856953863e+03 5.002002905698360337e+03 5.002005810911876324e+03 5.002001810920694879e+03 5.002005792204186946e+03 5.002005794858833724e+03 5.002007940766518004e+03 5.002007689661674704e+03 5.002001064241203494e+03 5.002007292148669876e+03 5.002002421709614282e+03 5.002008125887078677e+03 5.002009473572814386e+03 5.002004554355953587e+03 5.002005824160073644e+03 5.002008119119578623e+03 5.002000937019141929e+03 5.002003669754474686e+03 5.002004462089710614e+03 5.002003005872946233e+03 5.002004937246425470e+03 5.002006876274159367e+03 5.002003723876137883e+03 5.002000563117902857e+03 5.002009136386930550e+03 5.002002850936462892e+03 5.002004390414935187e+03 5.002006750461101547e+03 5.002002223660918389e+03 5.002004698729379925e+03 5.002007380803146589e+03 2.007006133590058639e+00
2.007488791594575606e+00 5.002004555611913929e+03 5.002003420453185754e+03 5.002008445392050817e+03 5.002004106981157747e+03 5.002007504476472604e+03 5.002008009760351342e+03 5.002000271574941507e+03 5.002000988579065051e+03 5.002005176906938686e+03 5.002005885684882742e+03 5.002005384402838899e+03 5.002006541783975081e+03 5.002002051413700428e+03 5.002006127756695605e+03 5.002003779198802476e+03 5.002004629836406821e+03 5.002008928925742111e+03 5.002003332832646265e+03 5.002003366540221577e+03 5.002001473851830269e+03 5.002006023449050190e+03 5.002005491139199876e+03 5.002005907951035624e+03 5.002006913602942404e+03 5.002005180013642530e+03 5.002006762156142941e+03 5.002009199955271470e+03 5.002003907107824489e+03 5.002006711363012982e+03 5.002005382017408920e+03 5.002002318829504475e+03 5.002000228686611081e+03 5.002006526052875415e+03 5.002007855553531044e+03 5.002006736588348758e+03 5.002006971300825171e+03 5.002005148398230631e+03 5.002005796422618914e+03 5.002003337525686220e+03 5.002002753959649453e+03 5.002002339241884329e+03 5.002007498550988203e+03 5.002002399457003776e+03 5.002004145033539317e+03 5.002007516551466324e+03 5.002007919582917566e+03 5.002002310559454600e+03 5.002000147789944094e+03 5.002007071459267536e+03 5.002003852525655930e+03 5.002001540899422253e+03 5.002001286672799324e+03 5.002000375188374164e+03 5.002008359471274161e+03 5.002000024982566174e+03 5.002003708479962370e+03 5.002005110541921567e+03 5.002006248381753721e+03 5.002006451642709180e+03 5.002001537722790999e+03 5.002006149918921437e+03 5.002005163624383385e+03 5.002007674658842006e+03 5.002008961138837549e+03 5.002005594039705102e+03 5.002008831577151795e+03 5.002002102600607941e+03 5.002000448636787041e+03 5.002000832911581711e+03 5.002002153147112040e+03 5.002007071905991324e+03 5.002008764139623963e+03 5.002007353175394201e+03 5.002004638039638849e+03 5.002002226447451903e+03 5.002001842581063102e+03 5.002008868472127688e+03 5.002004364105360764e+03 5.002000439260368694e+03 5.002006654962481662e+03 5.002004373373573799e+03 5.002004769738476170e+03 5.002002950285735096e+03 5.002002673899924957e+03 5.002003258154074501e+03 5.002007346826962021e+03 5.002005154843473974e+03 5.002001324603081230e+03 5.002002980296822898e+03 5.002008849924054630e+03 5.002006625989040003e+03 5.002007190922795417e+03 5.002003545656561982e+03 5.002004911542295304e+03 5.002002493236992450e+03 5.002002127158259100e+03 5.002003100341024947e+03 5.002005345247426703e+03 2.005919871739677340e+00
2.005455303688726154e+00 5.002002857686137759e+03 5.002000447787534540e+03 5.002005200473723562e+03 5.002001845182556281e+03 5.002008851059084009e+03 5.002007514716415244e+03 5.002000519765702848e+03 5.002000204383594792e+03 5.002008223911602727e+03 5.002004853532129346e+03 5.002007996074121365e+03 5.002006272098574300e+03 5.002002650828811966e+03 5.002004115723609175e+03 5.002003419274520638e+03 5.002000217662278374e+03 5.002005203329305914e+03 5.002002974659627398e+03 5.002009058076552719e+03 5.002004299981189433e+03 5.002005726985140427e+03 5.002006529017447974e+03 5.002000456734102954e+03 5.002003694307137266e+03 5.002009415092573363e+03 5.002007894610374024e+03 5.002006534834426020e+03 5.002007613910354848e+03 5.002004551068817818e+03 5.002002619400099320e+03 5.002001781806316103e+03 5.002007043955984955e+03 5.002002264595549605e+03 5.002000671391639116e+03 5.002005656008404003e+03 5.002002311961536179e+03 5.002008024003089304e+03 5.002002720110034716e+03 5.002000741969627597e+03 5.002006523702188133e+03 5.002004700429224613e+03 5.002006774711748221e+03 5.002002227001605206e+03 5.002006001300843309e+03 5.002006012210483277e+03 5.002006987123840190e+03 5.002001447766991078e+03 5.002006943214711100e+03 5.002006670965026387e+03 5.002002199975697295e+03 5.002004172676663075e+03 5.002008977708630482e+03 5.002002069173575364e+03 5.002004354266136943e+03 5.002005367297196244e+03 5.002007638616248187e+03 5.002001418400211151e+03 5.002002134113930879e+03 5.002004375644949505e+03 5.002000124689336189e+03 5.002004214587903334e+03 5.002003998873798992e+03 5.002008508235519002e+03 5.002005201912262237e+03 5.002000116454714771e+03 5.002006069024350836e+03 5.002001636682608478e+03 5.002005852087279891e+03 5.002005118631559526e+03 5.002003002004877089e+03 5.002008591572672231e+03 5.002003204328045285e+03 5.002002982443911606e+03 5.002003577659255825e+03 5.002001233330534888e+03 5.002007945825347633e+03 5.002001924461170347e+03 5.002006625809927755e+03 5.002005398187903666e+03 5.002008509996070643e+03 5.002008674121999320e+03 5.002002557978361438e+03 5.002001987487202314e+03 5.002001822877709856e+03 5.002001624159857784e+03 5.002006606369268411e+03 5.002005529148197638e+03 5.002005497907987774e+03 5.002006922272847078e+03 5.002008326044614478e+03 5.002002798459737278e+03 5.002008512040992173e+03 5.002002351699613428e+03 5.002006617954851208e+03 5.002004459386822418e+03 5.002000354013884134e+03 5.002007103710861884e+03 5.002005707519426323e+03 2.001570286808557864e+00
2.006825597533913097e+00 5.002001123860235566e+03 5.002002022481186032e+03 5.002002665885464012e+03 5.002005496705945006e+03 5.002007823909664694e+03 5.002008415917991442e+03 5.002007596956372254e+03 5.002004087627498848e+03 5.002003445807436037e+03 5.002004979315760465e+03 5.002003301754930362e+03 5.002006518019856230e+03 5.002003981401210694e+03 5.002007904365630566e+03 5.002004765659535224e+03 5.002004523695110947e+03 5.002008146427205247e+03 5.002008674682743731e+03 5.002001873232258731e+03 5.002000764620350310e+03 5.002000580140618695e+03 5.002003623332591815e+03 5.002003870094170452e+03 5.002001946616902387e+03 5.002006624158128943e+03 5.002000391841829696e+03 5.002005427441471511e+03 5.002005349350377401e+03 5.002004947231097503e+03 5.002000502270204379e+03 5.002006007517401486e+03 5.002001379180772346e+03 5.002006889287462400e+03 5.002002193592922595e+03 5.002007162421516114e+03 5.002000159253525453e+03 5.002005062763491878e+03 5.002001218257336404e+03 5.002005312376780239e+03 5.002002808317361087e+03 5.002005978466337183e+03 5.002001695684742117e+03 5.002007264066724019e+03 5.002007864441230595e+03 5.002002412861515040e+03 5.002008133093831930e+03 5.002000322027010952e+03 5.002004108357804398e+03 5.002002770828968096e+03 5.002003809911231656e+03 5.002008361311160115e+03 5.002001798434768716e+03 5.002006483314688921e+03 5.002005533975028811e+03 5.002006595948181712e+03 5.002004187971548163e+03 5.002006467945703662e+03 5.002002895430528042e+03 5.002003152983194013e+03 5.002005347684022126e+03 5.002002067601773888e+03 5.002005940489794739e+03 5.002006883489212669e+03 5.002001649019231081e+03 5.002008424356333308e+03 5.002009321498750069e+03 5.002006898094652570e+03 5.002006127411304078e+03 5.002008816495037536e+03 5.002001163650216768e+03 5.002002535496109886e+03 5.002003702966575474e+03 5.002003044249844606e+03 5.002002969233613840e+03 5.002003130685862743e+03 5.002006560498461113e+03 5.002001460235626837e+03 5.002001460052619223e+03 5.002007273576276930e+03 5.002009189578654514e+03 5.002008970930645773e+03 5.002001672926297942e+03 5.002005895215074815e+03 5.002006272658099988e+03 5.002004997416434890e+03 5.002003463146936156e+03 5.002003807996313299e+03 5.002003457374702521e+03 5.002007976951636920e+03 5.002008872266883373e+03 5.002001508324780843e+03 5.002000514587323778e+03 5.002006594582121579e+03 5.002001026260302751e+03 5.002004987252811588e+03 5.002005840831780915e+03 5.002000867515434038e+03 5.002002886755369218e+03 2.002495446930935064e+00
2.000768100066335098e+00 5.002006855812487629e+03 5.002000623074443865e+03 5.002006916851991264e+03 5.002005077733574581e+03 5.002006284233920269e+03 5.002002349243532990e+03 5.002000929140402150e+03 5.002008159715630427e+03 5.002008448786543340e+03 5.002003909951155038e+03 5.002002163819845009e+03 5.002002873382956750e+03 5.002006648373672760e+03 5.002005812307086671e+03 5.002007172485856245e+03 5.002007152370548283e+03 5.002001521197663351e+03 5.002003570139669137e+03 5.002007202775207588e+03 5.002000010517807823e+03 5.002001100480162677e+03 5.002006714293677760e+03 5.002000824127608212e+03 5.002005801661613077e+03 5.002005150378743565e+03 5.002006161821519527e+03 5.002001026899151839e+03 5.002008185456322281e+03 5.002004012756245174e+03 5.002000589963786297e+03 5.002006289430115430e+03 5.002000788526534052e+03 5.002001048138995429e+03 5.002000819810818939e+03 5.002005662644950462e+03 5.002000751324225348e+03 5.002003119925834653e+03 5.002000331816311700e+03 5.002002151786264221e+03 5.002003024683415788e+03 5.002000972691741481e+03 5.002002944150629446e+03 5.002006620029948863e+03 5.002001855414447164e+03 5.002008638675150905e+03 5.002009259833470423e+03 5.002006601541137570e+03 5.002002088498483317e+03 5.002009127746793638e+03 5.002006241655209124e+03 5.002006458955774178e+03 5.002007891501361883e+03 5.002008957869490587e+03 5.002000462453057480e+03 5.002000057695913711e+03 5.002001054173425473e+03 5.002000567559399315e+03 5.002004704585056970e+03 5.002005972660047519e+03 5.002007822881416359e+03 5.002002294458256983e+03 5.002002920022689068e+03 5.002003576599000553e+03 5.002002426732495223e+03 5.002004192564177174e+03 5.002006270666022829e+03 5.002006585100922166e+03 5.002006414208570277e+03 5.002001730929735459e+03 5.002003524868696331e+03 5.002007301226972231e+03 5.002003441253454184e+03 5.002000631637798506e+03 5.002000945927897192e+03 5.002000642812127808e+03 5.002006731794332154e+03 5.002002452690124301e+03 5.002003424715770961e+03 5.002006858921573439e+03 5.002009384625324856e+03 5.002007872706761191e+03 5.002003684825769597e+03 5.002007763844268084e+03 5.002006769621618332e+03 5.002009060271486305e+03 5.002007016638973255e+03 5.002008059104489803e+03 5.002006444148339142e+03 5.002004131675616009e+03 5.002005630417364955e+03 5.002008455449897156e+03 5.002005505624745638e+03 5.002007609912456246e+03 5.002003295477615211e+03 5.002003059032248530e+03 5.002003554554972652e+03 5.002007172283562795e+03 5.002007255794515004e+03 2.006258671202607591e+00
2.000496729521024974e+00 5.002000602745050855e+03 5.002001582298761605e+03 5.002008872154941855e+03 5.002001739073793942e+03 5.002000372607642930e+03 5.002005362355393117e+03 5.002004478159668906e+03 5.002002345919581785e+03 5.002006065863830372e+03 5.002001885674673758e+03 5.002000221545999011e+03 5.002000901658831026e+03 5.002004217233657982e+03 5.002008699855415216e+03 5.002003182006043971e+03 5.002003156562510412e+03 5.002008548835282454e+03 5.002006574570389603e+03 5.002002454259594742e+03 5.002006645748567280e+03 5.002004337266939729e+03 5.002002698018784940e+03 5.002001985197444810e+03 5.002006744828309820e+03 5.002006570001764885e+03 5.002001732353609441e+03 5.002005162901285075e+03 5.002000091923835498e+03 5.002006302789984147e+03 5.002000405914114708e+03 5.002000695572111908e+03 5.002002802486066685e+03 5.002003284922990133e+03 5.002002291538469763e+03 5.002005515082824786e+03 5.002005243334144325e+03 5.002001176273857709e+03 5.002009023121092469e+03 5.002000671225448059e+03 5.002006054211778974e+03 5.002000704251567186e+03 5.002004697395946096e+03 5.002003204100807125e+03 5.002003354754991051e+03 5.002003388148362319e+03 5.002006130875798590e+03 5.002005339689916582e+03 5.002002167893469050e+03 5.002005607901816802e+03 5.002008198821720725e+03 5.002003659921376311e+03 5.002007963605889927e+03 5.002000495797263284e+03 5.002000874813710652e+03 5.002003984575550930e+03 5.002008574217213209e+03 5.002008218072898671e+03 5.002000981321874860e+03 5.002001125729139858e+03 5.002005283166693516e+03 5.002002902460287260e+03 5.002000973179670837e+03 5.002009254745405997e+03 5.002003568539199478e+03 5.002006787870954213e+03 5.002004907432179607e+03 5.002001176336183562e+03 5.002003681408868033e+03 5.002000623646325948e+03 5.002005600825651527e+03 5.002005744712688283e+03 5.002006131667815680e+03 5.002004095567705008e+03 5.002004880159378445e+03 5.002004891826816674e+03 5.002000874616965120e+03 5.002005594929109975e+03 5.002005531092098863e+03 5.002008860461241966e+03 5.002004317802211517e+03 5.002004143147898503e+03 5.002003150362335873e+03 5.002006004739420860e+03 5.002005038257782871e+03 5.002005257116472421e+03 5.002003734956576409e+03 5.002003071358834859e+03 5.002002579291859547e+03 5.002006855088597149e+03 5.002008337896798366e+03 5.002002651892228641e+03 5.002001753621460921e+03 5.002001048925866598e+03 5.002002895264486142e+03 5.002003925383646674e+03 5.002007045020231089e+03 5.002008626026869024e+03 5.002006816803408583e+03 2.009347845748883366e+00
2.003376673725333124e+00 5.002005552910233746e+03 5.002004817773055947e+03 5.002002280318105477e+03 5.002008858882245477e+03 5.002002950202528154e+03 5.002004959251573382e+03 5.002008452890254375e+03 5.002007199721188044e+03 5.002001303405716499e+03 5.002004555398877528e+03 5.002001252805482181e+03 5.002004252606416230e+03 5.002002281546411723e+03 5.002003966720015342e+03 5.002006595718108656e+03 5.002001827508250244e+03 5.002002465247178407e+03 5.002004037899559989e+03 5.002002290625796377e+03 5.002007525614164479e+03 5.002005440663426270e+03 5.002001232409957083e+03 5.002004498105412495e+03 5.002001802011694963e+03 5.002003761938986827e+03 5.002000461294746856e+03 5.002005140135219335e+03 5.002005785260864286e+03 5.002000189827635950e+03 5.002001608712741472e+03 5.002004718679507278e+03 5.002004503164843300e+03 5.002007797749208294e+03 5.002004178674385003e+03 5.002005968095399112e+03 5.002002480848993400e+03 5.002007566798512016e+03 5.002006160560563330e+03 5.002008214268962547e+03 5.002001281806637053e+03 5.002008924245553317e+03 5.002008174866971785e+03 5.002003913345369256e+03 5.002002378557945121e+03 5.002004518926114542e+03 5.002006625278828324e+03 5.002008409199494963e+03 5.002001603949924174e+03 5.002004560891753499e+03 5.002001234368362020e+03 5.002002016912692852e+03 5.002002726273766712e+03 5.002007109974374544e+03 5.002001046044326358e+03 5.002007194521599558e+03 5.002007495636215026e+03 5.002006669045629678e+03 5.002000145163648995e+03 5.002001781955754268e+03 5.002004963471106748e+03 5.002008682669858899e+03 5.002007510866977100e+03 5.002007896018290012e+03 5.002002030131864558e+03 5.002004982940119589e+03 5.002005319248437445e+03 5.002004025441322483e+03 5.002001047313144227e+03 5.002006169478374431e+03 5.002000374967248717e+03 5.002005039909397055e+03 5.002008879674275704e+03 5.002009451326523049e+03 5.002005560449325458e+03 5.002004983811531019e+03 5.002003055515001506e+03 5.002007983416294337e+03 5.002003934543285141e+03 5.002002813551977852e+03 5.002003159473056257e+03 5.002005372726483984e+03 5.002000209557680137e+03 5.002008916464468712e+03 5.002000825511328912e+03 5.002001332763516984e+03 5.002006662859070275e+03 5.002004742215539409e+03 5.002005161383810446e+03 5.002000270705970252e+03 5.002007029034144580e+03 5.002001804572917536e+03 5.002007148672520998e+03 5.002002195871595177e+03 5.002007138003038563e+03 5.002001797092353627e+03 5.002008613110441729e+03 5.002007843763398341e+03 5.002007158023388911e+03 2.003950821598524890e+00
2.004287772958674108e+00 5.002007504249307203e+03 5.002006286872374403e+03 5.002006989559949034e+03 5.002000965525353422e+03 5.002002418747903903e+03 5.002009307350846939e+03 5.002000816051504444e+03 5.002003237121251914e+03 5.002000195325388631e+03 5.002003107293107860e+03 5.002001283450383198e+03 5.002003555267629054e+03 5.002006908372297403e+03 5.002000571046962250e+03 5.002006618585076467e+03 5.002008532431932508e+03 5.002000142814524224e+03 5.002006382570381902e+03 5.002001580387309332e+03 5.002007469122264411e+03 5.002000315338262226e+03 5.002005631096031721e+03 5.002000179852658221e+03 5.002004966779312781e+03 5.002000688811271175e+03 5.002001728317722154e+03 5.002007703972868512e+03 5.002007740347092295e+03 5.002006756361675798e+03 5.002006749925261829e+03 5.002008843353872180e+03 5.002007512527865401e+03 5.002005042268264333e+03 5.002002213806740656e+03 5.002000884061473698e+03 5.002002191493627834e+03 5.002003847008672892e+03 5.002008238916947448e+03 5.002009249266392544e+03 5.002006308775347861e+03 5.002008339098792931e+03 5.002001719701077491e+03 5.002008078957935140e+03 5.002001754484705089e+03 5.002008012880832212e+03 5.002002573702802692e+03 5.002004611421054506e+03 5.002000648604557682e+03 5.002002370167894696e+03 5.002006983491698520e+03 5.002000760321589951e+03 5.002001040616236423e+03 5.002001217876841110e+03 5.002000829202185741e+03 5.002001963274877198e+03 5.002003460947298663e+03 5.002003931332537832e+03 5.002006613158215259e+03 5.002006547746509568e+03 5.002003262117127633e+03 5.002009146230681836e+03 5.002002056368654848e+03 5.002008260353709375e+03 5.002003479641035483e+03 5.002008156206407875e+03 5.002001645464446483e+03 5.002000941361750847e+03 5.002000288086343971e+03 5.002004240248803399e+03 5.002003035504524632e+03 5.002001182289841381e+03 5.002001734646277328e+03 5.002009155980929791e+03 5.002008519983500264e+03 5.002008054579444433e+03 5.002006940093971025e+03 5.002009029649268996e+03 5.002003794527580794e+03 5.002004540796655419e+03 5.002002791216724290e+03 5.002001164953243460e+03 5.002006392965752639e+03 5.002005277053729515e+03 5.002008517716685674e+03 5.002005094101578834e+03 5.002009059166819497e+03 5.002001667672911026e+03 5.002006547583622705e+03 5.002004633327929696e+03 5.002003027400794963e+03 5.002008178140241398e+03 5.002003425662578593e+03 5.002001688276047389e+03 5.002004464800485948e+03 5.002000196648090423e+03 5.002004830533246604e+03 5.002001121570928262e+03 5.002008261924068393e+03 2.001828547957255289e+00
2.001289815604240019e+00 5.002008684348399584e+03 5.002005990886677864e+03 5.002004879268635705e+03 5.002002071728556984e+03 5.002007281155391865e+03 5.002008860020057000e+03 5.002006986581672209e+03 5.002008449907693830e+03 5.002002654574824192e+03 5.002004240166167619e+03 5.002009073394895495e+03 5.002006855442769847e+03 5.002000711593497726e+03 5.002005869445320059e+03 5.002006848889368484e+03 5.002008646070037685e+03 5.002006806916685491e+03 5.002001076649727111e+03 5.002001250428078492e+03 5.002000306697504129e+03 5.002001570457690832e+03 5.002004506973879870e+03 5.002000099519211290e+03 5.002006485398585028e+03 5.002008275723345832e+03 5.002008010205791834e+03 5.002008487376303492e+03 5.002003083603228333e+03 5.002007086553087902e+03 5.002006249896273403e+03 5.002000333001575200e+03 5.002004829758439882e+03 5.002008366517142349e+03 5.002000144907282447e+03 5.002005319838624018e+03 5.002002781391588542e+03 5.002007070720028423e+03 5.002000764302552852e+03 5.002003209871188119e+03 5.002007873070639107e+03 5.002007748101902507e+03 5.002008162730774529e+03 5.002008538880922970e+03 5.002001793384373741e+03 5.002008869227451214e+03 5.002006488309809356e+03 5.002005265573167890e+03 5.002001741577229041e+03 5.002001065067946001e+03 5.002003002676216965e+03 5.002007168207905124e+03 5.002009067549778592e+03 5.002005354895370147e+03 5.002001285645196731e+03 5.002001871323440355e+03 5.002002030669735177e+03 5.002008502826890435e+03 5.002008170621241334e+03 5.002004996086290703e+03 5.002008240008146458e+03 5.002009043749691955e+03 5.002000293600285659e+03 5.002008597398248639e+03 5.002001825234045100e+03 5.002008696595519723e+03 5.002006249891109292e+03 5.002005290240544127e+03 5.002008854312004587e+03 5.002007755064547382e+03 5.002007513643173297e+03 5.002001376370080834e+03 5.002000666513476972e+03 5.002003635938413936e+03 5.002005032264812144e+03 5.002001278478523091e+03 5.002006836900396593e+03 5.002008089460118754e+03 5.002006935722529306e+03 5.002007944981911351e+03 5.002001734498235237e+03 5.002002351472969167e+03 5.002007822418018804e+03 5.002001214387494656e+03 5.002008915446336687e+03 5.002007506182774705e+03 5.002001525639534520e+03 5.002000400588166485e+03 5.002000339592608725e+03 5.002005390647003878e+03 5.002003883819192197e+03 5.002003574062833650e+03 5.002008969731014986e+03 5.002003599817305258e+03 5.002005848098006027e+03 5.002001419034563696e+03 5.002008705689038834e+03 5.002003145869287437e+03 5.002008975801129054e+03 2.003093468531329968e+00
2.000654844740517024e+00 5.002003699752952343e+03 5.002007406267342049e+03 5.002009008319558234e+03 5.002008368470337700e+03 5.002001503980205598e+03 5.002004853012936110e+03 5.002000420257634687e+03 5.002006000432840665e+03 5.002001270180318897e+03 5.002004838579071475e+03 5.002002543618467826e+03 5.002005028158799178e+03 5.002003914126216841e+03 5.002009366974947625e+03 5.002004833065789171e+03 5.002009457144340558e+03 5.002008362369478164e+03 5.002005915769359490e+03 5.002003130758785119e+03 5.002004792994783202e+03 5.002008552147121918e+03 5.002004537745087873e+03 5.002008343143322236e+03 5.002004026677554975e+03 5.002003862299961838e+03 5.002000779828757004e+03 5.002005839632186508e+03 5.002008474594231302e+03 5.002000020604940801e+03 5.002005654368260366e+03 5.002008063605509051e+03 5.002007063759403536e+03 5.002003443805457209e+03 5.002006550920103109e+03 5.002006902408134920e+03 5.002007633781447112e+03 5.002007708158873356e+03 5.002002185751737670e+03 5.002008161742789525e+03 5.002001945509613506e+03 5.002006998380672485e+03 5.002006882155281346e+03 5.002003861516665893e+03 5.002004887524877631e+03 5.002004764080626046e+03 5.002005681238637408e+03 5.002006700371527586e+03 5.002007778586176755e+03 5.002002153951844775e+03 5.002000973495499238e+03 5.002002252836085063e+03 5.002003399658805392e+03 5.002004577818401231e+03 5.002003469666567071e+03 5.002002453117938785e+03 5.002006542620669279e+03 5.002004137260817515e+03 5.002007753495046018e+03 5.002002540451592722e+03 5.002002149471716621e+03 5.002001849195885370e+03 5.002004762997145008e+03 5.002008849058472151e+03 5.002006811478478085e+03 5.002000121769997349e+03 5.002008067830249274e+03 5.002002087032303280e+03 5.002007571359740723e+03 5.002006098937726165e+03 5.002006262593658903e+03 5.002006440061537432e+03 5.002008539379893591e+03 5.002001227101818586e+03 5.002008157822677276e+03 5.002004842739327614e+03 5.002004595149633133e+03 5.002008257964470431e+03 5.002002790387691675e+03 5.002005667658616403e+03 5.002009005092093503e+03 5.002007426654511619e+03 5.002008205468258893e+03 5.002000859458275045e+03 5.002004717575486211e+03 5.002008151854583048e+03 5.002000450839760560e+03 5.002003762413524782e+03 5.002008677386337695e+03 5.002000868103241373e+03 5.002005945993746536e+03 5.002004704617929747e+03 5.002006150432816867e+03 5.002000191914894458e+03 5.002004162163679212e+03 5.002004994507857191e+03 5.002001291705440053e+03 5.002000050025806559e+03 5.002005856564690475e+03 2.001833823077454166e+00
2.004790414149674849e+00 5.002005707281374271e+03 5.002003534306454640e+03 5.002001821775638746e+03 5.002001051624514730e+03 5.002008279958777166e+03 5.002001088768120098e+03 5.002005984288909531e+03 5.002007592043050863e+03 5.002003643088627541e+03 5.002004358918933576e+03 5.002004084399578460e+03 5.002006753416206266e+03 5.002002876301662582e+03 5.002005965112408376e+03 5.002003996264633315e+03 5.002008938805996877e+03 5.002008568726110752e+03 5.002004211952227706e+03 5.002008463337130706e+03 5.002002018707818934e+03 5.002001094435517189e+03 5.002006662311623586e+03 5.002005316972285982e+03 5.002002349977164158e+03 5.002000458839821476e+03 5.002000852158279486e+03 5.002004155557851846e+03 5.002000510746720465e+03 5.002005753355546403e+03 5.002006853973848592e+03 5.002005129328492330e+03 5.002005970900064312e+03 5.002008569678112508e+03 5.002006651232321929e+03 5.002007297612488401e+03 5.002008693404699443e+03 5.002004985405492334e+03 5.002008665299717904e+03 5.002004607991243574e+03 5.002007595377839607e+03 5.002008487928535942e+03 5.002008793540493571e+03 5.002006810989971200e+03 5.002000424479987487e+03 5.002005278597845063e+03 5.002004665366210247e+03 5.002000822487102596e+03 5.002001451666069443e+03 5.002004853624009229e+03 5.002004874993745943e+03 5.002005329924114449e+03 5.002003257541108724e+03 5.002004732910680104e+03 5.002005865099095899e+03 5.002005292138604091e+03 5.002008002430186934e+03 5.002001395188858623e+03 5.002001627308003663e+03 5.002005343497823560e+03 5.002002020301286393e+03 5.002003563242607015e+03 5.002002152094456505e+03 5.002000642395943032e+03 5.002006144589037831e+03 5.002000064996394940e+03 5.002008132252806718e+03 5.002000901877917386e+03 5.002005409330851762e+03 5.002008401055958529e+03 5.002002707961779379e+03 5.002007294156938769e+03 5.002009037006927429e+03 5.002006164328969135e+03 5.002007535684812865e+03 5.002000646249998681e+03 5.002002501823266357e+03 5.002003668834262498e+03 5.002001304963130679e+03 5.002004568067696709e+03 5.002005807916590129e+03 5.002002388175371379e+03 5.002000316757107612e+03 5.002004737759084492e+03 5.002001416068627805e+03 5.002003933390134080e+03 5.002001994746417040e+03 5.002000835556868878e+03 5.002000279812803456e+03 5.002003244233686019e+03 5.002003462162556389e+03 5.002007599940850923e+03 5.002000650651578326e+03 5.002002666385585144e+03 5.002004559376709039e+03 5.002008627501957562e+03 5.002002398020286819e+03 5.002005875022718101e+03 5.002000956693178523e+03 2.008478362332007716e+00
2.002990212595082031e+00 5.002008203527062506e+03 5.002005118563569340e+03 5.002000347067132680e+03 5.002006701497748509e+03 5.002008135506888721e+03 5.002006991945922891e+03 5.002003179027413353e+03 5.002002897340584241e+03 5.002003377454879228e+03 5.002004994181437723e+03 5.002008624148860690e+03 5.002000942455883887e+03 5.002000002082658284e+03 5.002007290424193343e+03 5.002004663718439588e+03 5.002004544960177554e+03 5.002003751650164304e+03 5.002007691583185078e+03 5.002001305200639763e+03 5.002003517755948451e+03 5.002002864584275812e+03 5.002005588862390141e+03 5.002006339822110021e+03 5.002009148097411526e+03 5.002003636027171524e+03 5.002004558502819236e+03 5.002004804098980458e+03 5.002001862097984485e+03 5.002006770472663447e+03 5.002008562455498577e+03 5.002005340451464690e+03 5.002009215126754498e+03 5.002003441396213020e+03 5.002008462854886602e+03 5.002003182574401762e+03 5.002006919295286934e+03 5.002005334322947419e+03 5.002002439641100864e+03 5.002004081928798769e+03 5.002000109680689093e+03 5.002002329061196178e+03 5.002004603200926795e+03 5.002007428273700498e+03 5.002007571532672046e+03 5.002004947617991093e+03 5.002003902003434632e+03 5.002004296021185837e+03 5.002005062996252491e+03 5.002000607155242506e+03 5.002005212181817114e+03 5.002006043830620001e+03 5.002003716155035363e+03 5.002007309577601518e+03 5.002005533874088542e+03 5.002002574340395768e+03 5.002002007966255405e+03 5.002008278393432192e+03 5.002001725252695906e+03 5.002008283114580081e+03 5.002008945160273470e+03 5.002006368407633090e+03 5.002000754912906814e+03 5.002004634408899619e+03 5.002005024698349189e+03 5.002005569056741479e+03 5.002005524809787858e+03 5.002006242437870242e+03 5.002004786859549313e+03 5.002000852411310916e+03 5.002003735992591828e+03 5.002008015376094590e+03 5.002002850171315913e+03 5.002007672898063902e+03 5.002002300545897924e+03 5.002002064678211354e+03 5.002001658504129409e+03 5.002006259476746891e+03 5.002004466159542972e+03 5.002000276676947578e+03 5.002002778143809337e+03 5.002008245745766544e+03 5.002004876562821664e+03 5.002004998362283914e+03 5.002008322789156409e+03 5.002008030698703806e+03 5.002007460723420081e+03 5.002004910293011562e+03 5.002005221086912570e+03 5.002002600591150440e+03 5.002006250560959415e+03 5.002000429192059528e+03 5.002008684936909958e+03 5.002000171455443706e+03 5.002008548899972993e+03 5.002005781682184534e+03 5.002006200477712810e+03 5.002001710478337372e+03 5.002008478025486511e+03 2.008392502346042718e+00
2.003676239949994553e+00 5.002009243095584679e+03 5.002005283484803840e+03 5.002001346795352219e+03 5.002000796147084657e+03 5.002007787921208546e+03 5.002000342530728631e+03 5.002004433222602529e+03 5.002002569881155068e+03 5.002004698340141658e+03 5.002007308763260880e+03 5.002001176225693598e+03 5.002004412905725985e+03 5.002003945103061596e+03 5.002002656715875673e+03 5.002002898111370087e+03 5.002003553191188075e+03 5.002005805923753542e+03 5.002001798977174985e+03 5.002008376103882256e+03 5.002000905239629901e+03 5.002002871466700526e+03 5.002007516897127971e+03 5.002007869700827541e+03 5.002006251897418224e+03 5.002002387967294453e+03 5.002004657868527829e+03 5.002003065929925469e+03 5.002008355926906916e+03 5.002001672801767199e+03 5.002007830617755644e+03 5.002000345596119587e+03 5.002006790897044993e+03 5.002008006057320927e+03 5.002008098075441922e+03 5.002002959835388538e+03 5.002002010849103499e+03 5.002008162200224433e+03 5.002001809578868233e+03 5.002003294902275229e+03 5.002001689854158940e+03 5.002001859164224697e+03 5.002000146986310028e+03 5.002000374048261619e+03 5.002005842522791681e+03 5.002005912713599173e+03 5.002005627633897348e+03 5.002005263478398774e+03 5.002002495046776858e+03 5.002006572656717253e+03 5.002008194373641345e+03 5.002004219027538056e+03 5.002002930815585387e+03 5.002007466027516784e+03 5.002001666711479629e+03 5.002009220910566910e+03 5.002002385120785220e+03 5.002007433014987328e+03 5.002003054849218643e+03 5.002006388413942659e+03 5.002000149354425957e+03 5.002002524889863707e+03 5.002003830491331428e+03 5.002006128908065875e+03 5.002007466984720850e+03 5.002002394429790911e+03 5.002004770101991198e+03 5.002004915885475384e+03 5.002007171708093665e+03 5.002004350856459496e+03 5.002003515869502735e+03 5.002006753702681635e+03 5.002000230924681091e+03 5.002001755098385729e+03 5.002008814769379569e+03 5.002003832261888419e+03 5.002003578437825126e+03 5.002000420163925810e+03 5.002001209868200021e+03 5.002000078772003690e+03 5.002007320643895582e+03 5.002005594488258794e+03 5.002002991441457198e+03 5.002004085797118023e+03 5.002006948250381356e+03 5.002008337924255102e+03 5.002001159375869065e+03 5.002000542107077308e+03 5.002006597332597266e+03 5.002007643216777069e+03 5.002001320216317254e+03 5.002001307018530497e+03 5.002000688211879606e+03 5.002007746172846964e+03 5.002000954394337896e+03 5.002003733883140740e+03 5.002001677981900684e+03 5.002008558664615521e+03 5.002006656502938313e+03 2.004306901218162462e+00
2.004104878240991816e+00 5.002005882149584068e+03 5.002005522615216250e+03 5.002003523356895130e+03 5.002007214735733214e+03 5.002008514464671862e+03 5.002003007299602359e+03 5.002008456744037176e+03 5.002007436812461492e+03 5.002004546504025711e+03 5.002005385754684539e+03 5.002008282084838356e+03 5.002000750415782022e+03 5.002002667837518857e+03 5.002005495704235727e+03 5.002003040438154130e+03 5.002008851634728671e+03 5.002006864002255497e+03 5.002001513675959359e+03 5.002000540567224562e+03 5.002001066009423084e+03 5.002008307911335578e+03 5.002001687294636213e+03 5.002005204166609474e+03 5.002006558736863553e+03 5.002003189022039805e+03 5.002000332113739205e+03 5.002001008326517876e+03 5.002006129774221336e+03 5.002001582692439115e+03 5.002008736898617826e+03 5.002000159122431796e+03 5.002008997062988783e+03 5.002006980434089201e+03 5.002006694983971101e+03 5.002001311624438131e+03 5.002006825560353718e+03 5.002000301574783407e+03 5.002006196537579854e+03 5.002007368627227152e+03 5.002006729085554980e+03 5.002007810796969352e+03 5.002005780696257716e+03 5.002001092180633350e+03 5.002000929135506340e+03 5.002001154146773843e+03 5.002001389961686073e+03 5.002001889672097604e+03 5.002000884945677171e+03 5.002005280782372211e+03 5.002004199766721285e+03 5.002008290928068163e+03 5.002007347444552579e+03 5.002008724368542062e+03 5.002006757162572285e+03 5.002001504050286712e+03 5.002002042396956313e+03 5.002001313957971433e+03 5.002001474717464589e+03 5.002008893587521925e+03 5.002003015311149284e+03 5.002001839680649937e+03 5.002003619948874984e+03 5.002001190408180264e+03 5.002001899878394397e+03 5.002007048427889458e+03 5.002001241826776095e+03 5.002001341905627669e+03 5.002000149483769746e+03 5.002002320431227417e+03 5.002002302903560121e+03 5.002004756367920891e+03 5.002004785573813933e+03 5.002007724329913799e+03 5.002008162519708094e+03 5.002006819746451583e+03 5.002007391626968456e+03 5.002005225217116276e+03 5.002003529933846039e+03 5.002008885329133591e+03 5.002002745821245298e+03 5.002002930619062681e+03 5.002002678533149265e+03 5.002002435584889099e+03 5.002002414459715510e+03 5.002002193152256041e+03 5.002008502504238095e+03 5.002007536897964201e+03 5.002001402800331562e+03 5.002000964097923315e+03 5.002008103812594527e+03 5.002006969858823140e+03 5.002000410506575463e+03 5.002000906135881451e+03 5.002005992635420625e+03 5.002001982894125831e+03 5.002006415702287995e+03 5.002006948290737455e+03 5.002005610354566670e+03 2.007567771270761803e+00
2.003260608231146378e+00 5.002006957434622564e+03 5.002006653424804426e+03 5.002002141771482457e+03 5.002000112127930151e+03 5.002005634110156279e+03 5.002007900978776888e+03 5.002004922725320284e+03 5.002000091349065769e+03 5.002006679157965664e+03 5.002000166217545484e+03 5.002000438615212261e+03 5.002000715034957466e+03 5.002001540196026326e+03 5.002002708067354433e+03 5.002000031923966162e+03 5.002005745207232394e+03 5.002008578597637097e+03 5.002002156603842195e+03 5.002006302223692728e+03 5.002003749610664272e+03 5.002008415274950494e+03 5.002001534578562314e+03 5.002006882642814162e+03 5.002007516108259551e+03 5.002008669702509906e+03 5.002005255355483314e+03 5.002004396039548737e+03 5.002002003755474107e+03 5.002003582385719710e+03 5.002001646444881771e+03 5.002004673526159422e+03 5.002003338545219776e+03 5.002009019738479765e+03 5.002001103808235712e+03 5.002007184102654719e+03 5.002000266199937869e+03 5.002008063618382948e+03 5.002007473329375898e+03 5.002003505748220050e+03 5.002001138369493674e+03 5.002000249838541095e+03 5.002007383869111436e+03 5.002004209596297187e+03 5.002000270277181698e+03 5.002008769395608397e+03 5.002008852776227286e+03 5.002005838514984134e+03 5.002008639693496661e+03 5.002006176539528497e+03 5.002000080197241914e+03 5.002003017807802280e+03 5.002008568907155677e+03 5.002006485314471320e+03 5.002008198637103305e+03 5.002002440459157697e+03 5.002006272915920817e+03 5.002005936472767644e+03 5.002001911962840495e+03 5.002005059119091129e+03 5.002000582827690778e+03 5.002004679592992943e+03 5.002008719213437871e+03 5.002003223506177164e+03 5.002004551550428005e+03 5.002005357165940950e+03 5.002002802940185575e+03 5.002007342330587562e+03 5.002008897876089577e+03 5.002006383605088558e+03 5.002001779618494766e+03 5.002005984440546854e+03 5.002000040129340050e+03 5.002002352322145271e+03 5.002001416483911271e+03 5.002007939453099425e+03 5.002000576598067710e+03 5.002006930920587365e+03 5.002001335417569862e+03 5.002000805963802122e+03 5.002004603483168466e+03 5.002008590484845627e+03 5.002000573601051656e+03 5.002000410744572036e+03 5.002007349785996666e+03 5.002000660033923850e+03 5.002001182032315228e+03 5.002008255261335762e+03 5.002003959802953432e+03 5.002001724431313960e+03 5.002000635693558252e+03 5.002008297774289531e+03 5.002002071900773444e+03 5.002005193015663281e+03 5.002004838878940973e+03 5.002000436286487457e+03 5.002007101591458195e+03 5.002007160804615523e+03 5.002004944262645040e+03 2.006162151314911046e+00
2.002639830978664826e+00 5.002005978238196803e+03 5.002004479208894736e+03 5.002000015580144463e+03 5.002002617050900881e+03 5.002005756233724242e+03 5.002008557410972571e+03 5.002005059066815193e+03 5.002002540707222579e+03 5.002009190015416607e+03 5.002007360197389971e+03 5.002003160632023537e+03 5.002002517961009289e+03 5.002007118710150280e+03 5.002005687483234396e+03 5.002005365567492845e+03 5.002008341802334144e+03 5.002001738097773341e+03 5.002007609486089677e+03 5.002001715611679174e+03 5.002007179225017353e+03 5.002007377823626484e+03 5.002006460771794991e+03 5.002003673576176880e+03 5.002009044691673807e+03 5.002006988897510382e+03 5.002004721312116089e+03 5.002005125069768837e+03 5.002004749193371936e+03 5.002004371783442366e+03 5.002005438749943096e+03 5.002004352700516392e+03 5.002002584398558611e+03 5.002004365146650343e+03 5.002007749130762932e+03 5.002000783503463026e+03 5.002005689005690328e+03 5.002000585200831665e+03 5.002000489129005473e+03 5.002005177774889489e+03 5.002000660138452076e+03 5.002008889789031855e+03 5.002008287921296869e+03 5.002007375679371762e+03 5.002002411429212771e+03 5.002006178895041558e+03 5.002007790725077939e+03 5.002000746586073546e+03 5.002009295362391640e+03 5.002005148997969627e+03 5.002004636579957150e+03 5.002005427536510069e+03 5.002000933404854550e+03 5.002004986879976968e+03 5.002008346393246029e+03 5.002001475608414694e+03 5.002005205498177929e+03 5.002005552229328714e+03 5.002000050238886615e+03 5.002005869406456441e+03 5.002000090341458417e+03 5.002007057893688398e+03 5.002008471209194795e+03 5.002002630616150782e+03 5.002004359344460681e+03 5.002002964026433801e+03 5.002009142698053438e+03 5.002000580625652219e+03 5.002006629161778619e+03 5.002005677610775820e+03 5.002004505251084993e+03 5.002001425307345016e+03 5.002005292877806824e+03 5.002000919546662772e+03 5.002008859275249961e+03 5.002000769942183069e+03 5.002006881603442707e+03 5.002001076756955626e+03 5.002006995826014645e+03 5.002005489691197909e+03 5.002001079336539078e+03 5.002000145556046846e+03 5.002007637428754606e+03 5.002003961545019592e+03 5.002004485246259719e+03 5.002006334031528240e+03 5.002008289866434097e+03 5.002001026346334584e+03 5.002009098692328735e+03 5.002004810677644855e+03 5.002002554651505307e+03 5.002007385465580228e+03 5.002005611657574264e+03 5.002005958866715446e+03 5.002005324801780262e+03 5.002001290002132919e+03 5.002007715107941294e+03 5.002004754292388498e+03 5.002003184799352312e+03 2.005199293444039466e+00
2.004785076139671052e+00 5.002000030517869163e+03 5.002001596682246600e+03 5.002005601904453215e+03 5.002003702187731506e+03 5.002003458173048784e+03 5.002009118751952883e+03 5.002008217068083468e+03 5.002007970314219165e+03 5.002008365446586140e+03 5.002007263679994139e+03 5.002004720763390651e+03 5.002003939770616853e+03 5.002002908916712840e+03 5.002001386921137055e+03 5.002008754677418437e+03 5.002000914903524972e+03 5.002004849320190260e+03 5.002002259667267936e+03 5.002002795218523715e+03 5.002003207099021893e+03 5.002006486627570666e+03 5.002003088134042628e+03 5.002007098353599758e+03 5.002002918186701208e+03 5.002008108685605293e+03 5.002006189919731696e+03 5.002007605447044625e+03 5.002008665500588904e+03 5.002006917540035829e+03 5.002007034416377792e+03 5.002002016867922066e+03 5.002008794706890512e+03 5.002000477715242596e+03 5.002007532567217822e+03 5.002002124562269273e+03 5.002008085287880021e+03 5.002008886949544831e+03 5.002000557921931431e+03 5.002004785425958289e+03 5.002006698967683405e+03 5.002007394697930067e+03 5.002008066418403359e+03 5.002000259061389443e+03 5.002003337867195114e+03 5.002002794703717882e+03 5.002008612855157480e+03 5.002006085508695833e+03 5.002005714861435990e+03 5.002008105140338557e+03 5.002002014143659835e+03 5.002003897644320205e+03 5.002001746546402501e+03 5.002007697277017542e+03 5.002003614359949097e+03 5.002006405129347513e+03 5.002004764869151586e+03 5.002005555503643336e+03 5.002007303315479476e+03 5.002006793523482884e+03 5.002005936554458458e+03 5.002003169642453031e+03 5.002003027578644833e+03 5.002002910769186201e+03 5.002002933953261163e+03 5.002007740756592284e+03 5.002006259992293053e+03 5.002008784126188402e+03 5.002002561487771345e+03 5.002001103325199438e+03 5.002008092634558125e+03 5.002008781296789493e+03 5.002008404892432736e+03 5.002001581790962518e+03 5.002007851410263356e+03 5.002007126033313398e+03 5.002006494824908259e+03 5.002004407337265548e+03 5.002004595069403877e+03 5.002007160747909438e+03 5.002000744087825296e+03 5.002000478591454339e+03 5.002000268120148576e+03 5.002002290798078320e+03 5.002002709311803301e+03 5.002005757102630923e+03 5.002005436480309072e+03 5.002006939607002096e+03 5.002006029011704413e+03 5.002005346362482669e+03 5.002005430183557110e+03 5.002000077106407844e+03 5.002000343348465321e+03 5.002006255144262468e+03 5.002001023019884087e+03 5.002002196627555350e+03 5.002000932380731683e+03 5.002005777068582574e+03 5.002007377673965493e+03 2.007825485392041198e+00
2.005915147824110178e+00 5.002006959043739698e+03 5.002004434141054844e+03 5.002006150619264190e+03 5.002002797055532938e+03 5.002001632067261198e+03 5.002002725519239902e+03 5.002007145861115532e+03 5.002003218969342015e+03 5.002000648529457067e+03 5.002004755580383062e+03 5.002007066562670843e+03 5.002008121881516672e+03 5.002001375995362650e+03 5.002004107396274776e+03 5.002000896160244338e+03 5.002004474889086850e+03 5.002008861951700055e+03 5.002009070640614482e+03 5.002003295221472399e+03 5.002002909731356340e+03 5.002001265038134989e+03 5.002006478509369117e+03 5.002004112249794161e+03 5.002008787955704975e+03 5.002000406244374062e+03 5.002008497666190124e+03 5.002006378715519531e+03 5.002007925641200927e+03 5.002008655070685563e+03 5.002003461166122179e+03 5.002002498976025890e+03 5.002003323804068714e+03 5.002009113989375692e+03 5.002000428942446888e+03 5.002007940610025798e+03 5.002006554071822393e+03 5.002000526498733961e+03 5.002006317551134089e+03 5.002008683465624927e+03 5.002000195542860638e+03 5.002004212860021653e+03 5.002008271815028820e+03 5.002004534595986115e+03 5.002001408006795828e+03 5.002008365015436539e+03 5.002008344323969141e+03 5.002003522664464072e+03 5.002003753651731131e+03 5.002008835173582156e+03 5.002008442225192084e+03 5.002008119594628624e+03 5.002006286028510658e+03 5.002005144019228283e+03 5.002009222105903063e+03 5.002007981420390024e+03 5.002001587897237187e+03 5.002008932016273320e+03 5.002003403439113754e+03 5.002005688830502550e+03 5.002001596995416548e+03 5.002007032778255052e+03 5.002003533403711117e+03 5.002003371539328327e+03 5.002004363646951788e+03 5.002005044621188063e+03 5.002005670890454894e+03 5.002005725525176786e+03 5.002000100168083009e+03 5.002004989230265892e+03 5.002003855790419948e+03 5.002004771382817125e+03 5.002003261877886871e+03 5.002003633297696979e+03 5.002000547676883798e+03 5.002008917754159484e+03 5.002004126870303480e+03 5.002004435371521140e+03 5.002008029936475396e+03 5.002003759961108699e+03 5.002001082959222913e+03 5.002005576395202297e+03 5.002004532100403594e+03 5.002000820181053314e+03 5.002006680932901872e+03 5.002004485372108320e+03 5.002002146494815861e+03 5.002008895902647055e+03 5.002000372778234123e+03 5.002001571009825966e+03 5.002000838367644974e+03 5.002008199523342228e+03 5.002000599149184382e+03 5.002004776544202286e+03 5.002000903143132746e+03 5.002002480399679371e+03 5.002008537594379959e+03 5.002008840469930874e+03 5.002006902057587467e+03 2.002777010749735354e+00
2.009009667908228103e+00 5.002000692050297403e+03 5.002001657044072090e+03 5.002006714379916048e+03 5.002004447676128621e+03 5.002004308189055337e+03 5.002009044231646840e+03 5.002004706703938609e+03 5.002003855156995087e+03 5.002000587062939303e+03 5.002004068131111126e+03 5.002008281549340609e+03 5.002001199394280775e+03 5.002004643091219805e+03 5.002001914327850500e+03 5.002008952302939178e+03 5.002001480892274230e+03 5.002001519125155937e+03 5.002003113969471997e+03 5.002008587973925387e+03 5.002008862675672390e+03 5.002006666717522421e+03 5.002006285626806857e+03 5.002006594723463422e+03 5.002007683638259550e+03 5.002002616512034365e+03 5.002009167112811156e+03 5.002004116349487049e+03 5.002006422088489671e+03 5.002009217369784892e+03 5.002003412518611185e+03 5.002002108292605953e+03 5.002007372751519142e+03 5.002006662708787189e+03 5.002007226649006952e+03 5.002002117922904290e+03 5.002004346537205492e+03 5.002004822732247703e+03 5.002002716037086429e+03 5.002007677842895646e+03 5.002002559485606071e+03 5.002002852752883882e+03 5.002002151747096832e+03 5.002006639376746534e+03 5.002007691175709624e+03 5.002006957602387047e+03 5.002002857573670553e+03 5.002005764467638073e+03 5.002007140019503822e+03 5.002003220411191251e+03 5.002000107090962047e+03 5.002002978762157909e+03 5.002006370191751557e+03 5.002006413948392947e+03 5.002001832003462368e+03 5.002006976587128520e+03 5.002005987148516397e+03 5.002006816634950155e+03 5.002002566284243585e+03 5.002004168984449279e+03 5.002008417616100814e+03 5.002005559522414842e+03 5.002007980987684277e+03 5.002004594793808792e+03 5.002000069001590418e+03 5.002001713939994261e+03 5.002005487044714755e+03 5.002000749953756895e+03 5.002007129759177587e+03 5.002006628360411923e+03 5.002006556830887348e+03 5.002009307696324868e+03 5.002007298342588911e+03 5.002005794328290904e+03 5.002002868834287256e+03 5.002001094121186725e+03 5.002003321266485727e+03 5.002003955284866606e+03 5.002008442817627838e+03 5.002001958749165169e+03 5.002005017366395805e+03 5.002001192993845507e+03 5.002008153423079420e+03 5.002006287718836575e+03 5.002008080742499260e+03 5.002002844335498594e+03 5.002002446955551932e+03 5.002000245895192165e+03 5.002008006800746443e+03 5.002003521973469105e+03 5.002005904753419600e+03 5.002003327186398565e+03 5.002008713809817891e+03 5.002005258702438368e+03 5.002002978209852699e+03 5.002003417186970182e+03 5.002006628990156059e+03 5.002007297843810193e+03 5.002008032994011046e+03 2.002086981919055653e+00
2.004715438695229501e+00 5.002007376452620520e+03 5.002003020721346729e+03 5.002003942583369280e+03 5.002001376867236104e+03 5.002006072866403883e+03 5.002008094525006527e+03 5.002006041307181476e+03 5.002007763713317217e+03 5.002007763685076497e+03 5.002001317772827861e+03 5.002001938074861755e+03 5.002006940752901755e+03 5.002007982928269485e+03 5.002008617631808193e+03 5.002005101768954773e+03 5.002009119759525674e+03 5.002005350038806682e+03 5.002006648127369772e+03 5.002007244388513755e+03 5.002001296013141655e+03 5.002008922705013902e+03 5.002006398860803529e+03 5.002005313702449712e+03 5.002005758981512372e+03 5.002003496667955005e+03 5.002003040300417524e+03 5.002001612395946722e+03 5.002003000790431543e+03 5.002004511354734859e+03 5.002006948265280698e+03 5.002001211320248331e+03 5.002000316496127198e+03 5.002003040739765311e+03 5.002004528669184765e+03 5.002004023906533803e+03 5.002002874800289646e+03 5.002002140670548215e+03 5.002005596928255727e+03 5.002000119902233564e+03 5.002000663633009026e+03 5.002001914149060212e+03 5.002008210266472815e+03 5.002006432164754187e+03 5.002000150870113430e+03 5.002000428009667303e+03 5.002002420862046165e+03 5.002006605595222027e+03 5.002008593905559792e+03 5.002001722156298456e+03 5.002004700389685240e+03 5.002005140729439518e+03 5.002003910720132808e+03 5.002007027532843495e+03 5.002007462072932867e+03 5.002006559354063938e+03 5.002008116301579321e+03 5.002003398874404411e+03 5.002001473385468671e+03 5.002003001292469889e+03 5.002005807539275338e+03 5.002001608289123396e+03 5.002002933083840617e+03 5.002004785588494087e+03 5.002007990883086677e+03 5.002008194791591450e+03 5.002000887875676199e+03 5.002000940295986766e+03 5.002006574079327038e+03 5.002007206585602034e+03 5.002005551871708121e+03 5.002007443823084031e+03 5.002002172163851355e+03 5.002002670138861504e+03 5.002006558575290910e+03 5.002001100313990719e+03 5.002005226863223470e+03 5.002000480222048282e+03 5.002002982216267810e+03 5.002000131878003231e+03 5.002004516953729762e+03 5.002000420403365752e+03 5.002000499836031850e+03 5.002004737321066386e+03 5.002003319814202769e+03 5.002001783509664165e+03 5.002001861331325017e+03 5.002002393465163550e+03 5.002006580727983419e+03 5.002007789333138135e+03 5.002006213226896762e+03 5.002008645566993437e+03 5.002005652590034515e+03 5.002007085789696248e+03 5.002008109862802485e+03 5.002009084123718822e+03 5.002001156138115221e+03 5.002007915016834886e+03 5.002001549176698973e+03 2.004302771832424224e+00
2.000309676478022158e+00 5.002006747274123882e+03 5.002006922548399416e+03 5.002008176558852938e+03 5.002007428227076161e+03 5.002006645828828368e+03 5.002003354588423463e+03 5.002001720228829072e+03 5.002000320935374475e+03 5.002007912989040960e+03 5.002001064192013473e+03 5.002001285142392589e+03 5.002004971579130142e+03 5.002002507871880880e+03 5.002006029978468177e+03 5.002009363274281895e+03 5.002003983704480561e+03 5.002005203547783822e+03 5.002000139044434945e+03 5.002004805251664948e+03 5.002003981262922935e+03 5.002006491566052318e+03 5.002002171534989429e+03 5.002004926048284688e+03 5.002000936498285228e+03 5.002001949701494596e+03 5.002006155801896966e+03 5.002007259244207489e+03 5.002002569390564531e+03 5.002003231272487028e+03 5.002003934366487556e+03 5.002004399016200296e+03 5.002007669088544390e+03 5.002002295211636010e+03 5.002001097232063330e+03 5.002004694252527770e+03 5.002002682815029402e+03 5.002001135053242251e+03 5.002001364424721942e+03 5.002007167911068791e+03 5.002008077513790340e+03 5.002005263306895358e+03 5.002008425765864558e+03 5.002008571987424148e+03 5.002008646930963550e+03 5.002000534279140993e+03 5.002006722206692757e+03 5.002008512507728483e+03 5.002000548892865481e+03 5.002002848179738066e+03 5.002008955226584476e+03 5.002005855733013959e+03 5.002002497900328308e+03 5.002008410283796366e+03 5.002008807807298581e+03 5.002007361998688793e+03 5.002008826146663523e+03 5.002003911464991688e+03 5.002003162536391756e+03 5.002001934162031830e+03 5.002004689113479799e+03 5.002000743661425076e+03 5.002006168820450512e+03 5.002003312063718113e+03 5.002002938569144135e+03 5.002006385591037542e+03 5.002009035744402354e+03 5.002004461743442334e+03 5.002009087835802347e+03 5.002006534643778650e+03 5.002003020120580913e+03 5.002006144124800812e+03 5.002003554105444891e+03 5.002008983865232040e+03 5.002000871384311722e+03 5.002003316534356600e+03 5.002000227324428124e+03 5.002006883072656819e+03 5.002008645385825730e+03 5.002008872671332938e+03 5.002000268218322162e+03 5.002006736176895174e+03 5.002008774726067713e+03 5.002004000087342320e+03 5.002005147896308699e+03 5.002002776936707050e+03 5.002003964321675994e+03 5.002006072842798858e+03 5.002008607886734353e+03 5.002007872157422753e+03 5.002002944850033600e+03 5.002000193403910089e+03 5.002003018076325134e+03 5.002002409532567071e+03 5.002005812284363856e+03 5.002006777427540328e+03 5.002007833500644665e+03 5.002001422094883310e+03 5.002003949175990783e+03 2.002427392960625774e+00
2.007494297770287428e+00 5.002002724977346588e+03 5.002006021890368174e+03 5.002001331431660219e+03 5.002000951061500928e+03 5.002001473189645367e+03 5.002007761003907035e+03 5.002001102722339056e+03 5.002007831690720195e+03 5.002000538964050065e+03 5.002000917589679375e+03 5.002007398432338960e+03 5.002001012209868350e+03 5.002005990497350467e+03 5.002003567241238670e+03 5.002008003044392353e+03 5.002000603037132350e+03 5.002001537309247396e+03 5.002006339621257212e+03 5.002004982697666492e+03 5.002008331483694747e+03 5.002001459401233660e+03 5.002007931384534459e+03 5.002001917232830237e+03 5.002004064300277605e+03 5.002002652862039213e+03 5.002004429728039213e+03 5.002006411717610717e+03 5.002002464434888680e+03 5.002004772044401761e+03 5.002004042871315505e+03 5.002000040711427573e+03 5.002003014807799445e+03 5.002006388874781805e+03 5.002003163329930430e+03 5.002002979575634527e+03 5.002005969165256829e+03 5.002003463019259470e+03 5.002004175451935225e+03 5.002000671250571941e+03 5.002002577557797849e+03 5.002003672873990581e+03 5.002004084793714355e+03 5.002008074224816482e+03 5.002000726288617443e+03 5.002001478125605900e+03 5.002001181230373732e+03 5.002001302136258346e+03 5.002007321386846343e+03 5.002009098337885916e+03 5.002005421778401796e+03 5.002002243172105409e+03 5.002005719532041439e+03 5.002004516569299994e+03 5.002007546329134129e+03 5.002000943800211644e+03 5.002005352925217267e+03 5.002005658530594701e+03 5.002006454019210651e+03 5.002003894527802913e+03 5.002005410320371993e+03 5.002002997165416673e+03 5.002004388888896756e+03 5.002004695446112237e+03 5.002000973412713392e+03 5.002000725845948182e+03 5.002008737863156057e+03 5.002003347170264533e+03 5.002006966580617700e+03 5.002009247227233573e+03 5.002003143428898511e+03 5.002004383709457215e+03 5.002003099433685747e+03 5.002005333473864084e+03 5.002009008616670144e+03 5.002005494331892805e+03 5.002008609455902842e+03 5.002006871004749883e+03 5.002005102180080030e+03 5.002002784599314509e+03 5.002007046131196148e+03 5.002001365821129184e+03 5.002007334688827541e+03 5.002007682433541049e+03 5.002006307683371233e+03 5.002007554343183074e+03 5.002009148868102784e+03 5.002008491246995618e+03 5.002002333162528885e+03 5.002000822746385893e+03 5.002004121341248720e+03 5.002007336081959693e+03 5.002007340245108026e+03 5.002007329265051339e+03 5.002006432730030610e+03 5.002000085400931312e+03 5.002002310166005373e+03 5.002007347278670750e+03 5.002007579743126371e+03 2.001740335600928233e+00
2.005538177204173156e+00 5.002001117808816161e+03 5.002000767619994804e+03 5.002002935135425105e+03 5.002009057584156835e+03 5.002007616721468366e+03 5.002007856980037104e+03 5.002005710151058338e+03 5.002004607481472704e+03 5.002005133530726198e+03 5.002007012321936600e+03 5.002002774316200885e+03 5.002001743953883306e+03 5.002003880699849105e+03 5.002001042386747940e+03 5.002008956492365542e+03 5.002003743368956748e+03 5.002000301862120978e+03 5.002005438734709060e+03 5.002003361236965247e+03 5.002002256625804876e+03 5.002006795859605518e+03 5.002005384896784562e+03 5.002001875708277112e+03 5.002007616276576300e+03 5.002009076010152057e+03 5.002004567848771330e+03 5.002009448768186303e+03 5.002007327920754506e+03 5.002005237313534963e+03 5.002005740899961893e+03 5.002000208116332942e+03 5.002000022390149752e+03 5.002000725280226106e+03 5.002006675770390757e+03 5.002008057527275923e+03 5.002005059082285698e+03 5.002003180702527970e+03 5.002008120907301418e+03 5.002002160055697459e+03 5.002004584729404087e+03 5.002006838282445642e+03 5.002002731570107244e+03 5.002002343137211938e+03 5.002002330094504941e+03 5.002004522698833171e+03 5.002003731148181942e+03 5.002001008804747471e+03 5.002004918353464745e+03 5.002000899074928384e+03 5.002005893212703995e+03 5.002004673112764067e+03 5.002005539453319216e+03 5.002003190613268089e+03 5.002006379498541719e+03 5.002001822267744501e+03 5.002003411721749217e+03 5.002006526893034788e+03 5.002003527217952978e+03 5.002006478221553152e+03 5.002005202486887356e+03 5.002006958185696931e+03 5.002003741011623788e+03 5.002000401868232075e+03 5.002007887843072240e+03 5.002006229876265934e+03 5.002003893772560332e+03 5.002005786963435639e+03 5.002001570217445988e+03 5.002006131402623396e+03 5.002001806709409720e+03 5.002007159802801652e+03 5.002005585696590060e+03 5.002009246316141798e+03 5.002002186732019254e+03 5.002000919278822039e+03 5.002005086215666779e+03 5.002006619100808166e+03 5.002005233832983322e+03 5.002005491079257808e+03 5.002003021255507520e+03 5.002000679623219185e+03 5.002003229439755160e+03 5.002006050984378817e+03 5.002005488037555551e+03 5.002008923067983233e+03 5.002004171694808065e+03 5.002004932409390676e+03 5.002004079867779183e+03 5.002003102390866843e+03 5.002001851587025158e+03 5.002003014731561052e+03 5.002007907247627372e+03 5.002006551425743965e+03 5.002005893443629247e+03 5.002005497014632965e+03 5.002008140750972416e+03 5.002008057552393439e+03 5.002008326293434948e+03 2.001773745726026732e+00
2.008123091546170080e+00 5.002001190913146274e+03 5.002003312112820822e+03 5.002007792040089043e+03 5.002008006033036509e+03 5.002007514572446780e+03 5.002005168080622752e+03 5.002000593027721152e+03 5.002002019758642746e+03 5.002006627333693359e+03 5.002002476130157447e+03 5.002007975197841006e+03 5.002000029754267416e+03 5.002001936231958098e+03 5.002004570159739160e+03 5.002008203756830881e+03 5.002007611443526002e+03 5.002008753287715990e+03 5.002007666116277505e+03 5.002003759196371902e+03 5.002002296415776982e+03 5.002005557545258853e+03 5.002006602672018744e+03 5.002008170158279427e+03 5.002001706765505332e+03 5.002003993728834757e+03 5.002001943983711499e+03 5.002005773268038865e+03 5.002001103010057705e+03 5.002004159021102168e+03 5.002008658426364491e+03 5.002005933368744991e+03 5.002006843299103821e+03 5.002003280334684860e+03 5.002006627432194364e+03 5.002002667443295650e+03 5.002002828354648045e+03 5.002000351966002199e+03 5.002003041861130441e+03 5.002006724112109623e+03 5.002001218593617523e+03 5.002006110651325798e+03 5.002008316424100485e+03 5.002006645180736086e+03 5.002004718023417809e+03 5.002009192227522362e+03 5.002003947051067371e+03 5.002000989906336144e+03 5.002001435035194845e+03 5.002000769738960116e+03 5.002004830277298424e+03 5.002001246996106602e+03 5.002004108570596145e+03 5.002000838488522277e+03 5.002003311110877803e+03 5.002001945409294422e+03 5.002009260046453164e+03 5.002001472456369811e+03 5.002003743015440705e+03 5.002008563177828364e+03 5.002001167955931123e+03 5.002000578947401664e+03 5.002001199086392262e+03 5.002004624210473594e+03 5.002001472223949349e+03 5.002007094117901033e+03 5.002004565299327624e+03 5.002006409044644897e+03 5.002005734974522966e+03 5.002003246298420891e+03 5.002003213148494979e+03 5.002005540755805669e+03 5.002003332796681207e+03 5.002005894541463022e+03 5.002008335664144397e+03 5.002007353204765423e+03 5.002002978845725011e+03 5.002008901279358724e+03 5.002005800196369819e+03 5.002000308727292577e+03 5.002005039848696470e+03 5.002000645538954814e+03 5.002003378997258551e+03 5.002007386095590846e+03 5.002006443939241763e+03 5.002006625767771766e+03 5.002003497298108414e+03 5.002001409591116499e+03 5.002008796230275038e+03 5.002001937975423061e+03 5.002005507224223038e+03 5.002005809685741042e+03 5.002005923642316702e+03 5.002008933247162531e+03 5.002003901894498995e+03 5.002000331640285367e+03 5.002000757793774937e+03 5.002004428294107129e+03 5.002000318731169500e+03 2.004533637130032186e+00
2.000134185191030145e+00 5.002005905418945076e+03 5.002003901617182237e+03 5.002004379234642329e+03 5.002006956258946047e+03 5.002001981722705750e+03 5.002007697047009060e+03 5.002008797199371656e+03 5.002001870150048489e+03 5.002006454519718318e+03 5.002003729565738467e+03 5.002007451038309227e+03 5.002006028601099388e+03 5.002006285085706622e+03 5.002000811227030681e+03 5.002009011202446345e+03 5.002002395633478955e+03 5.002000143986728290e+03 5.002008990639875265e+03 5.002008457976464342e+03 5.002003706660462740e+03 5.002000435946038124e+03 5.002003985532431216e+03 5.002005424215477433e+03 5.002008206858929043e+03 5.002004947323430315e+03 5.002008690194430528e+03 5.002008629600210952e+03 5.002006761531587472e+03 5.002001993689170376e+03 5.002000032253324207e+03 5.002002519587662391e+03 5.002000890669792170e+03 5.002005892074321309e+03 5.002002215571481429e+03 5.002001497349980127e+03 5.002003472930861790e+03 5.002002906494306444e+03 5.002001991217065552e+03 5.002003861377496833e+03 5.002006913880938555e+03 5.002006433898674914e+03 5.002001224768714565e+03 5.002002225642231679e+03 5.002005421029783065e+03 5.002005263548220682e+03 5.002004755238580401e+03 5.002007539227790403e+03 5.002002291391328981e+03 5.002003946490014641e+03 5.002001577140902555e+03 5.002007613258700985e+03 5.002005532077834687e+03 5.002006841992709269e+03 5.002006801095663832e+03 5.002001481997571318e+03 5.002001411766064848e+03 5.002002337235870073e+03 5.002005087321733299e+03 5.002007102366724212e+03 5.002006718348177856e+03 5.002002589365939457e+03 5.002007292486357983e+03 5.002009217128667842e+03 5.002008077971133389e+03 5.002002819731270392e+03 5.002007788545647600e+03 5.002005060668857368e+03 5.002005842044375640e+03 5.002007486731934478e+03 5.002006958019374906e+03 5.002002734387686360e+03 5.002006736360292052e+03 5.002006380301717400e+03 5.002002113218849445e+03 5.002002394952564828e+03 5.002007434399964950e+03 5.002009212916123033e+03 5.002004975145072422e+03 5.002004182863270216e+03 5.002008128786837915e+03 5.002002421775245239e+03 5.002006068443771255e+03 5.002006894306802678e+03 5.002006075595094444e+03 5.002003098842028521e+03 5.002005065781591838e+03 5.002000498416568917e+03 5.002001367223379930e+03 5.002008900561359042e+03 5.002001454146537071e+03 5.002002563720791841e+03 5.002000564105725061e+03 5.002000150831223436e+03 5.002002519801289054e+03 5.002007335752834479e+03 5.002005456087630591e+03 5.002006603287593862e+03 5.002004459701842279e+03 2.002776309839987334e+00
2.002541032332596505e+00 5.002005727148149163e+03 5.002003924569772607e+03 5.002009216126888532e+03 5.002006235472809749e+03 5.002001346960449155e+03 5.002002803399475852e+03 5.002000919699450606e+03 5.002001413133075403e+03 5.002002995980737978e+03 5.002001587382572325e+03 5.002002983235051943e+03 5.002000565173235373e+03 5.002009065430668670e+03 5.002008156289615727e+03 5.002000902165319530e+03 5.002004722680698251e+03 5.002006542698983139e+03 5.002001669155395575e+03 5.002003354921326718e+03 5.002008344223883796e+03 5.002002411695621049e+03 5.002002940172815215e+03 5.002006941201661903e+03 5.002003018974062797e+03 5.002002536957358643e+03 5.002007113038536772e+03 5.002006761459700101e+03 5.002007252623287059e+03 5.002008118529782223e+03 5.002000164225058143e+03 5.002005812964229335e+03 5.002004221710691127e+03 5.002008179758906408e+03 5.002006991044282586e+03 5.002002450193784171e+03 5.002003525122507199e+03 5.002002782742414638e+03 5.002002151791114557e+03 5.002003895017891409e+03 5.002005278627141706e+03 5.002002672622582395e+03 5.002004812384010620e+03 5.002004167548977421e+03 5.002007847086714719e+03 5.002008094578029159e+03 5.002009185169049488e+03 5.002003801566970651e+03 5.002005225582923231e+03 5.002001011585203742e+03 5.002000980322444775e+03 5.002002064927614811e+03 5.002002750395902694e+03 5.002002652167464475e+03 5.002002363600403442e+03 5.002006663222655334e+03 5.002003967171018303e+03 5.002005231964709310e+03 5.002002762504892416e+03 5.002007537462068285e+03 5.002005535217230317e+03 5.002005875881306565e+03 5.002003767432885070e+03 5.002003050127523238e+03 5.002003631764162492e+03 5.002007288475078894e+03 5.002006916819451362e+03 5.002003766282970901e+03 5.002001606482353054e+03 5.002001130582593760e+03 5.002008108824300507e+03 5.002001167288544821e+03 5.002000786931990660e+03 5.002005153744808013e+03 5.002006648822573879e+03 5.002000537434848411e+03 5.002005930063743108e+03 5.002006353651986501e+03 5.002006851208530861e+03 5.002003375655324817e+03 5.002006349124905682e+03 5.002008029862220610e+03 5.002002104576111378e+03 5.002008938089605181e+03 5.002006528008213536e+03 5.002006721118488713e+03 5.002001231998944604e+03 5.002004319468805079e+03 5.002000055727443396e+03 5.002004790468097781e+03 5.002007166616625909e+03 5.002000640668649794e+03 5.002006076456695155e+03 5.002009066140623872e+03 5.002002949249164885e+03 5.002004076278490174e+03 5.002008770016816925e+03 5.002003992358543655e+03 5.002000854066385727e+03 2.006750208996811669e+00
2.007366858460644998e+00 5.002008324436690600e+03 5.002005626734912767e+03 5.002002890260786444e+03 5.002008129508926686e+03 5.002009065099740837e+03 5.002006152162643957e+03 5.002003756448120839e+03 5.002007597442160659e+03 5.002005187549449147e+03 5.002004307392328883e+03 5.002007715386266682e+03 5.002002344085145523e+03 5.002009172238798783e+03 5.002008263701868600e+03 5.002003857337890622e+03 5.002001341102536571e+03 5.002007811616405888e+03 5.002001745379687236e+03 5.002002200298004027e+03 5.002001064411058906e+03 5.002008593041688982e+03 5.002002027340141467e+03 5.002008396265568081e+03 5.002005938467867054e+03 5.002003598262414926e+03 5.002005381469066378e+03 5.002008037217037781e+03 5.002001806391752325e+03 5.002008458221246656e+03 5.002006358214883221e+03 5.002006238577944714e+03 5.002003377898748113e+03 5.002003507829668706e+03 5.002001817004282202e+03 5.002005946928949925e+03 5.002007071377909597e+03 5.002002481807574441e+03 5.002002915732207839e+03 5.002002653367368112e+03 5.002004454379663002e+03 5.002002709909416808e+03 5.002000077484952271e+03 5.002005822010646625e+03 5.002004573378660098e+03 5.002006991382884735e+03 5.002004105602645723e+03 5.002000320241457302e+03 5.002003803264310591e+03 5.002000370241078599e+03 5.002005176796108572e+03 5.002006204460223671e+03 5.002003077244597989e+03 5.002002501514321921e+03 5.002002382322916674e+03 5.002002627919608130e+03 5.002007079093747961e+03 5.002006361485287016e+03 5.002005947393904535e+03 5.002000222809118895e+03 5.002008704090179890e+03 5.002003501561313897e+03 5.002006741690488525e+03 5.002006162157030303e+03 5.002004107541953090e+03 5.002004542628097624e+03 5.002000338664994160e+03 5.002002151404148208e+03 5.002007046028539662e+03 5.002001396373859279e+03 5.002006077493621888e+03 5.002006412551408175e+03 5.002006083108465646e+03 5.002002793152617414e+03 5.002006783737286241e+03 5.002001884715142296e+03 5.002005332612654456e+03 5.002009279772619266e+03 5.002007874970927332e+03 5.002002216062112893e+03 5.002003924007726710e+03 5.002004003615805232e+03 5.002005064633686743e+03 5.002007163699844568e+03 5.002003227684907870e+03 5.002001381464040605e+03 5.002005365272309973e+03 5.002007671717657104e+03 5.002000041407665776e+03 5.002001511179381851e+03 5.002008175913014384e+03 5.002008306735249789e+03 5.002005968807191493e+03 5.002009175808092550e+03 5.002006607753972276e+03 5.002003788814437939e+03 5.002005909428260566e+03 5.002006972171223424e+03 5.002006011411764121e+03 2.006751368326402218e+00
2.003474999955651370e+00 5.002004381791064588e+03 5.002001690183153187e+03 5.002000800254102614e+03 5.002002550714415520e+03 5.002008626787024696e+03 5.002004528719523478e+03 5.002001428575900718e+03 5.002000056681378737e+03 5.002007803428460647e+03 5.002002678355389435e+03 5.002009158887373815e+03 5.002004746021651954e+03 5.002007716513850028e+03 5.002007974254221153e+03 5.002001533554486741e+03 5.002004997932379410e+03 5.002001172353797301e+03 5.002004753256001095e+03 5.002002319165434528e+03 5.002002182171632739e+03 5.002000295939043099e+03 5.002000489157794618e+03 5.002005696390306184e+03 5.002009019212704516e+03 5.002002177046839279e+03 5.002006692729916722e+03 5.002007066487540214e+03 5.002005708765956115e+03 5.002008776532489719e+03 5.002003511085124956e+03 5.002007818006412890e+03 5.002001575150857207e+03 5.002001311406116656e+03 5.002000280687326267e+03 5.002007828711225557e+03 5.002000697795363521e+03 5.002007853279294068e+03 5.002000938433202464e+03 5.002004626810361515e+03 5.002002411661407677e+03 5.002004885556621957e+03 5.002005961753339761e+03 5.002003976013409556e+03 5.002004316272498727e+03 5.002003040715577299e+03 5.002004705429647402e+03 5.002005958202012152e+03 5.002009198975368236e+03 5.002001160361732218e+03 5.002009115960328018e+03 5.002005205955826568e+03 5.002005423064649221e+03 5.002007772201524858e+03 5.002005570272016485e+03 5.002008151594875926e+03 5.002007764380388835e+03 5.002002672973858353e+03 5.002007574716240015e+03 5.002006360256384141e+03 5.002004235802891344e+03 5.002000102688505649e+03 5.002006160252172776e+03 5.002006777336010600e+03 5.002009454686934987e+03 5.002007889753707786e+03 5.002001502350766714e+03 5.002008690638489497e+03 5.002005334042324648e+03 5.002001903578832753e+03 5.002007432337016326e+03 5.002004037614506160e+03 5.002009004823911710e+03 5.002003502851070152e+03 5.002001392434817717e+03 5.002000428537592597e+03 5.002002460254488142e+03 5.002005068145764199e+03 5.002003819257420218e+03 5.002006572299910658e+03 5.002000153133139975e+03 5.002000002168184437e+03 5.002001196928211357e+03 5.002002824999226505e+03 5.002004863985966040e+03 5.002003067333601393e+03 5.002000681504605382e+03 5.002000605578823524e+03 5.002008310585072650e+03 5.002003398412599381e+03 5.002006822958339399e+03 5.002004681640239141e+03 5.002004763521360474e+03 5.002009173609053505e+03 5.002006548416532496e+03 5.002009378225399814e+03 5.002005299567563270e+03 5.002006453215713009e+03 5.002005347377099497e+03 2.007019212323357227e+00
2.004228991416757477e+00 5.002003261365777689e+03 5.002007840294469133e+03 5.002002065353858598e+03 5.002003996490049758e+03 5.002000381592522899e+03 5.002004574464033794e+03 5.002004149065191086e+03 5.002004174688471721e+03 5.002000210157843867e+03 5.002007573991868412e+03 5.002008768054710345e+03 5.002000881765640770e+03 5.002002471347510436e+03 5.002003131519185445e+03 5.002000768669916397e+03 5.002005440936988634e+03 5.002002150832191546e+03 5.002005402495591625e+03 5.002003144655019241e+03 5.002002168611057641e+03 5.002009091565820199e+03 5.002006083475721425e+03 5.002000465933126179e+03 5.002001685740133325e+03 5.002005065494790870e+03 5.002006271656864556e+03 5.002000265129750005e+03 5.002006834435657765e+03 5.002003243567879508e+03 5.002002804194974487e+03 5.002003030557830243e+03 5.002008060052299697e+03 5.002007291099826944e+03 5.002001592698662535e+03 5.002000503102025505e+03 5.002008089760057373e+03 5.002002777292621431e+03 5.002003204613296475e+03 5.002004229310785377e+03 5.002004672278725593e+03 5.002005397264179919e+03 5.002004908506255560e+03 5.002000462321078885e+03 5.002007715572716734e+03 5.002002785329980725e+03 5.002003877534838466e+03 5.002003381944250577e+03 5.002001661746053287e+03 5.002006243017948691e+03 5.002008142113166286e+03 5.002000899712453247e+03 5.002004384776279039e+03 5.002005919811239437e+03 5.002003739915565347e+03 5.002008177320273717e+03 5.002002350203913011e+03 5.002000269068909802e+03 5.002000665520863549e+03 5.002006648116694123e+03 5.002001759460646099e+03 5.002001902972329844e+03 5.002002755678364338e+03 5.002008907466084565e+03 5.002005476645365889e+03 5.002001166986463431e+03 5.002008252235669715e+03 5.002006313091548691e+03 5.002007734749414340e+03 5.002003103190586444e+03 5.002000010826833204e+03 5.002006622181327657e+03 5.002005354058313060e+03 5.002004553213858344e+03 5.002000765274106925e+03 5.002005868848517821e+03 5.002001144794166976e+03 5.002002198243593739e+03 5.002005953755246992e+03 5.002000446026917416e+03 5.002008240915861279e+03 5.002003334359356813e+03 5.002005333193358638e+03 5.002006096851240727e+03 5.002007319243108213e+03 5.002009261892260838e+03 5.002002832217019204e+03 5.002000457975123936e+03 5.002005503979625246e+03 5.002007885121376603e+03 5.002001430599046216e+03 5.002005565026719523e+03 5.002008761883412262e+03 5.002006992723441726e+03 5.002000995113361569e+03 5.002006892978794895e+03 5.002006476332250713e+03 5.002000462181549665e+03 5.002006930635515346e+03 2.005391874117148809e+00
2.002893750891725499e+00 5.002002757597359050e+03 5.002006003608414176e+03 5.002007525824082222e+03 5.002004659227788579e+03 5.002003304781703264e+03 5.002008803655236079e+03 5.002005509480531146e+03 5.002007880839129939e+03 5.002005119192393977e+03 5.002007559168566331e+03 5.002000162446565810e+03 5.002003090972632890e+03 5.002007441564599503e+03 5.002008111137807646e+03 5.002000865520457410e+03 5.002001305831986429e+03 5.002003231907938243e+03 5.002004069355394677e+03 5.002000555334387172e+03 5.002000536271085366e+03 5.002005173442807973e+03 5.002003663496447189e+03 5.002006888488481309e+03 5.002007671981802559e+03 5.002002181684558309e+03 5.002000318838988278e+03 5.002004601369371812e+03 5.002005699356937839e+03 5.002008332472812072e+03 5.002006591521660994e+03 5.002005017442419557e+03 5.002007810082503966e+03 5.002002904865794335e+03 5.002001063178178811e+03 5.002008979824209746e+03 5.002001921707276779e+03 5.002000508507784616e+03 5.002005306705587827e+03 5.002008884841011422e+03 5.002006747305729732e+03 5.002002659035202669e+03 5.002000504637329868e+03 5.002008883258272363e+03 5.002000713697728315e+03 5.002005954932626992e+03 5.002007073873083755e+03 5.002001197978540404e+03 5.002005570863256253e+03 5.002007995173044947e+03 5.002006124904647550e+03 5.002001723887607113e+03 5.002005659771754836e+03 5.002007462371932888e+03 5.002005022920067859e+03 5.002005786869575786e+03 5.002006151447107186e+03 5.002006546601000991e+03 5.002009010930467412e+03 5.002008812216243314e+03 5.002008939339617427e+03 5.002006945059800273e+03 5.002006696678867229e+03 5.002008023362912354e+03 5.002006643487773545e+03 5.002006199873982951e+03 5.002008592733053774e+03 5.002001742056694638e+03 5.002008374105257644e+03 5.002004311260846407e+03 5.002006490088173450e+03 5.002006005876673044e+03 5.002001413902135937e+03 5.002001485154398324e+03 5.002006841736065326e+03 5.002000042063350520e+03 5.002003510933950565e+03 5.002004623812723366e+03 5.002001005909934065e+03 5.002004321310664636e+03 5.002000511058357006e+03 5.002002372871640546e+03 5.002005236104021606e+03 5.002002563763318904e+03 5.002001673818841482e+03 5.002005438523379780e+03 5.002006206211884091e+03 5.002006816933218943e+03 5.002000248728941187e+03 5.002005297758728375e+03 5.002002212159501141e+03 5.002001452779072679e+03 5.002001218450259330e+03 5.002001808574254028e+03 5.002004620965830327e+03 5.002001034232627717e+03 5.002007335866064750e+03 5.002007576971220260e+03 5.002003098411239080e+03 2.003084909419355242e+00
2.005125576366486584e+00 5.002008240212725468e+03 5.002002537274494898e+03 5.002006999605323472e+03 5.002004433840226739e+03 5.002008485221805131e+03 5.002008915048109884e+03 5.002007280014033313e+03 5.002009210171787345e+03 5.002005131186731887e+03 5.002006804435974118e+03 5.002005985124539620e+03 5.002003404823615710e+03 5.002009092454964048e+03 5.002002251860983051e+03 5.002006872090398247e+03 5.002001488140454057e+03 5.002009057767028935e+03 5.002007741781704681e+03 5.002005019817072025e+03 5.002003454877186414e+03 5.002001752936548655e+03 5.002002330051878744e+03 5.002004824786240533e+03 5.002004799212975740e+03 5.002002723778525251e+03 5.002003919325372408e+03 5.002004187346850813e+03 5.002006002485995850e+03 5.002006044752174603e+03 5.002006683044621241e+03 5.002007584589602629e+03 5.002008986532546260e+03 5.002000033333129977e+03 5.002008594623618592e+03 5.002006928237173270e+03 5.002004992114490051e+03 5.002004202018067190e+03 5.002006970762673518e+03 5.002003308102781375e+03 5.002003099195469986e+03 5.002008851859785864e+03 5.002001718257339235e+03 5.002008649221823362e+03 5.002001328888519311e+03 5.002008600363904407e+03 5.002000740303239581e+03 5.002009172018694699e+03 5.002008937013052673e+03 5.002003455746554209e+03 5.002004604710187778e+03 5.002008591781624091e+03 5.002001387666804476e+03 5.002002342040039366e+03 5.002002893341882555e+03 5.002009029510513756e+03 5.002005060519577455e+03 5.002006080423083404e+03 5.002004405196760672e+03 5.002006207083284608e+03 5.002008155990187333e+03 5.002008002830099940e+03 5.002001280277207115e+03 5.002004632741020032e+03 5.002006173399616273e+03 5.002002357509283684e+03 5.002004686776293966e+03 5.002001853337538705e+03 5.002008804089222394e+03 5.002008726160443985e+03 5.002008241116598583e+03 5.002003437177223532e+03 5.002000479350407659e+03 5.002005681686534444e+03 5.002006235798908165e+03 5.002004936201566125e+03 5.002006640311263254e+03 5.002002624674327308e+03 5.002002379445400948e+03 5.002004916525261251e+03 5.002001731090133944e+03 5.002000144490185448e+03 5.002003842555836854e+03 5.002007122954255465e+03 5.002001500379684330e+03 5.002005405871437688e+03 5.002005218892658377e+03 5.002000765370494264e+03 5.002000172705687874e+03 5.002003950608923333e+03 5.002002665098680154e+03 5.002005650951729876e+03 5.002000255629229287e+03 5.002008388944224862e+03 5.002007521156289840e+03 5.002007924856104182e+03 5.002001385196845149e+03 5.002005099306327793e+03 5.002003520971569742e+03 2.003370123370926237e+00
